ply
format ascii 1.0
element vertex 784
property float x
property float y
property float z
end_header
0.22341930374991736 0.33418674456204883 0.3321487825841312
-0.2505329222188163 -0.3093159511230519 0.015429332179327671
-0.06970574057712305 -0.3564109221827536 -0.08494300293910817
0.4011113074523522 -0.14431179790475848 -0.33585095295623796
0.2669697013409305 0.2930562998491378 -0.07188384211760039
-0.12195522217614213 -0.13553645035070952 -0.029558761126838445
0.3843865197713626 0.018814403433166843 -0.2599819085570722
0.16634806193163718 0.18051973529995133 0.0020578204920151224
-0.037862517054640964 -0.24534441659604392 -0.16948988141389734
0.21656640941957123 0.3595686182585333 -0.040374390691020993
0.10167661996550004 -0.16453968998118731 -0.23986081008793284
-0.10260427823557343 0.2919308077438588 0.3844250948147881
0.17036270863761216 0.35939171880728704 -0.03499633963829135
-0.09307531690077354 0.28635215204024594 0.32057804864855116
-0.3035006761751925 -0.23458379463507575 0.07648791599800453
0.16333978704989272 -0.2544735630525854 0.08938080383706883
0.2470101095704334 -0.04765488018175589 -0.2796090445193747
0.21756594661521725 -0.07305512180169134 -0.047207835217608206
0.1135601976234696 -0.14399377317778297 -0.19710264038899608
0.18173205644691723 -0.1522527031981584 -0.27557829507684356
0.06311921719949272 0.12026082932136052 0.0757735864933254
-0.0727136322929251 0.14230599181377235 0.2587647451270308
0.1234278716409119 0.26745401107124184 0.3484631289180596
0.022345756925536583 0.18680584455784152 0.016783509739927996
0.050819295936337355 -0.2601088612007669 -0.22401982245142057
0.07967556813742284 0.06505560263738377 0.1588831268745079
-0.2900091478990485 -0.2627747104467565 0.13198698137362735
-0.08715454660199426 0.29393435390709055 0.20694474596849324
0.012442909777192762 -0.2982091274635316 0.06157753776062797
-0.03124027960595515 -0.12100367238260096 0.18022537970993588
0.23200563178804762 -0.18644646796131678 -0.3159865726632888
-0.007465815587491059 -0.001270584275470768 -0.0545189419210588
0.33586287768141027 0.03428029114601177 -0.2756576329660951
-0.07039749484604242 -0.35898291230158014 -0.08439874501884274
-0.11542730064852715 0.3273654651784802 0.329420064071356
0.14919501193073562 0.32342054490704847 0.024762112551614708
-0.06488144394958438 0.2697061012038924 0.15843227128749768
-0.2567606099400759 -0.39925905623974467 -0.023239329955462594
0.08095139352194114 -0.29290579827740615 -0.25800346201698554
0.2384665248201374 -0.12443558905377546 -0.33955713830637646
0.08741622940670886 -0.12349709394928386 -0.06050799088816363
0.10720319515317622 0.2735127812137495 0.37120011780474466
0.23786874988730414 0.12550020736039236 -0.16017412262512246
-0.17967757562643874 -0.01705411204673723 0.12896358270674432
-0.02192654032708848 0.047718975579557274 0.0008685695739194721
-0.14430266202660225 -0.2984757989385552 -0.011207234172992662
0.3384621672466747 0.3476672136172668 0.021229989722137074
0.1347761890165107 0.21536921569688117 0.06689851361666577
0.2636564248664178 0.0704497136022407 -0.2159175967832092
0.3453222500706227 0.00028828503939847455 -0.24779137741394544
-0.034202299596699064 -0.2434811782878643 -0.12467748546974641
-0.18504644271744292 -0.21023629468015412 -0.011402068795566695
0.029407995095475935 -0.22560890026866695 -0.20322819860918276
0.28389680063951145 0.040832639126802385 -0.20477567211814132
-0.043868828023104156 0.3004751137476935 0.17641982966395595
-0.13265821597937213 -0.18445407718614953 0.13584833240171418
-0.015163550250335082 0.2329026488036207 0.3568937894059876
-0.14198130751245666 -0.10293329005812102 -0.012648058325369492
-0.03520412076188415 0.17603834664647156 0.08636702188403445
-0.195527651057538 -0.35148879953358936 0.0010359003948863124
-0.24400846270818682 -0.022973007086316017 0.16394404274629307
0.2933732907793746 -0.09599463868202937 -0.33406811037583317
-0.17047668848458622 -0.21988522452021614 0.08343185656671295
-0.13995924917506627 -0.241742284089748 0.30048844491726623
0.05663657837321264 0.40410515876593517 0.08213105176797274
0.10234270962933578 0.027828726326355205 -0.07128274941848933
0.21953459913329365 0.27115711907294876 0.2877565649098133
0.21397826021625585 0.4602153182230717 -0.005115382534845562
-0.014285989048967105 -0.19336328939697195 0.06199014286830511
0.19393019092182212 0.08342275675123365 0.16494547924292421
-0.10940509806042903 0.33065567957109454 0.30923886114066246
0.05749098733598995 -0.28879782662267023 -0.021076434843758454
-0.023867361474242232 -0.1863972303864116 -0.1483771554962525
-0.10775347554048938 -0.2718132674588435 -0.003565168262440121
0.05245827247756601 -0.2879277063536426 -0.1248765995299831
-0.0685696460448259 -0.19594758890952477 -0.12625020285255775
-0.22235869140566306 -0.004117708577507709 0.12749612025700668
0.037364659778695374 -0.11403068933806956 0.14935173731946122
-0.02360323842838854 -0.21620461962891505 -0.1265170666618583
-0.15813019828461866 -0.37301475564531156 -0.012042109185764859
-0.04931171976895845 0.03530697151649567 0.012449978061871533
0.14640273294986686 -0.21463045973902642 -0.28491977857516365
-0.08749896920848435 -0.37712878582977216 -0.07542510082523425
0.2816358631301201 0.4254408962777307 -0.037305889636187695
0.3161621618372732 0.2402341910239997 -0.043032883150916294
-0.11793711871232201 -0.3637702086225861 -0.07424864013655734
-0.04472630231342072 -0.32505880019473843 -0.010005096858339795
0.059841624743804736 0.14774837868214957 0.018185818953340906
0.10756063037559278 -0.313884563371139 -0.16927090883956317
0.014420334541433011 0.41940015747368925 0.1325212859950594
0.02874754323013397 -0.1084562649885501 0.1344042385666288
-0.041318836137206466 -0.13209645563990216 0.1646511597155857
0.022791263215468486 -0.27791661107003973 -0.008919802616948256
-0.10398906098799714 -0.2589046562926366 -0.04025355668151247
0.2400882513809 -0.1491185199877387 -0.2904392914886072
0.09485526845657753 -0.2886881960847954 -0.1603880464246861
0.2703498680707069 -0.1576492183414775 -0.33188194281661526
-0.07090859914531455 0.17109852924382576 0.1839392103475841
-0.2083252613041466 -0.010276348293333815 0.15420053252552937
0.0764845501481575 0.21146569537856796 0.3544164638141089
-0.12258242425335232 -0.1803748595058211 0.23840106505105874
-0.12550814114931752 -0.17016017839004188 -0.056987215781027424
0.05479319857913053 -0.1254583265715814 0.11007611629011221
-0.07226183907631463 -0.3727993412551014 -0.07657030719390301
-0.08677634528811073 -0.1607155075521256 0.12462375208111698
0.16032444688869255 0.16243656274605264 0.27444044549426905
0.033088167234653826 0.22497347590111613 0.0374494431321637
-0.03924282803512505 0.2062216532333195 0.10454972742626685
-0.034243122546986665 -0.1989723339163466 0.04306565210335563
0.08399197004393637 -0.27571659544287974 -0.25655326156860625
0.295296272922339 -0.12941906633729422 -0.31623170269929135
-0.14758232207576769 0.01665304699567849 0.1370803776964364
-0.1826931126297505 -0.1436481484820618 0.18229989722137074
0.09689410194918768 0.3939030274617285 0.0309280609699658
0.11153776062797141 0.19068662134790265 0.09986585886270338
0.14449371307332143 -0.09918296399141709 -0.03871324762437116
-0.14424133143403234 -0.26082761439381646 0.2747086075599392
-0.05194294884509277 -0.2343748234431442 0.06083517553507997
-0.19259890489671047 -0.41424641627147984 0.04893295347313631
0.1600759915733545 0.07480310379439466 -0.12982257162949207
-0.3299304831797664 -0.2965525523359599 0.03744776020724019
0.3763693178744658 0.12149340353534444 -0.2332745151072564
0.12469518022322797 0.15768225175354766 -0.008377900791575759
0.0875946014172632 0.01585812942894751 -0.10628595298629018
0.37518992408806506 0.3440745054905426 -0.011532615686062377
0.3263774199558833 0.40597123400470014 0.19349399255906766
0.17519293532158892 0.2260299680845309 -0.01018113080533968
0.2521343334715736 -0.08582044393155304 -0.28757562643875056
-0.19384662543500605 -0.33918594517271017 -0.00643671901765268
-0.07276306220210726 -0.36453002518376937 -0.08107410279065015
-0.15300434555257036 -0.19041249691964635 0.031111355535921432
0.2432101432289319 -0.19118991206717276 -0.3259117906922231
-0.024009712880987157 -0.2369353696724908 -0.16326777138667004
0.13630362069276403 -0.10690422354051342 -0.03834372539473605
-0.11739161061925626 -0.1886765839028231 -0.061175535079968986
0.01682037781664533 -0.2921143427276607 -0.021737487753715957
-0.031648004231354096 0.3831602445049496 0.16221654435408742
-0.08873094237785271 0.3023099346664503 0.20855513682780674
0.3552281385047212 0.03776423423910757 -0.2882884172692139
-0.2612816194546121 -0.069210263437855 0.10825009466452695
-0.3229460081621859 -0.24656256573925484 0.09440673891222945
-0.3153092314442501 -0.3405258419132452 0.06736218347487934
-0.06949222548789796 0.15498110916773353 0.2559316612272129
0.17676304717599187 -0.11417292053589138 -0.2621118183402754
0.06656759047224076 -0.1476257174970098 -0.08280871755110382
0.28634849768898346 -0.09294556338917037 -0.2560680021878024
0.18672958439267448 -0.16392672064047314 -0.19548910005589715
-0.09906047109876966 -0.390561219399316 -0.053666035569820345
-0.0550555184911376 -0.36383598694531094 -0.03948955684980496
-0.2787230686933891 -0.06920458957668428 0.11289761204974245
0.10062494214945575 -0.303184430540279 -0.13872534064203587
0.13492808200652734 -0.03187567993172133 0.11992295810117985
0.18340924526827626 -0.2568140788690744 -0.3122805796474272
0.02672222723092735 -0.2674087163490146 -0.14485315878997698
0.06953224303840073 0.26554182368957246 0.05035863130120149
0.34268085131959347 -0.08970146113946038 -0.34124804510238793
-0.0033507636271840457 0.3628827301850616 0.14777728892815714
0.10012999993989553 -0.20981546728213635 -0.18339988099316612
0.30942945238825076 0.4049909542785361 -0.02192010914970218
0.3508063374144263 0.4149357423201524 -0.023921010716625495
-0.36976666245935436 -0.3660342715639782 0.032414468345985326
0.32692532020651893 0.44237621786665227 -0.02204628043539672
-0.12761158092765226 -0.012796696658792982 0.11096095013132824
-0.008491654495513201 0.17579667862745452 0.344147844954531
-0.23902474500682186 -0.1129647727750831 0.06161196559620621
0.17079390856308263 0.13014104112948305 0.2122927447904458
0.2970741628951117 -0.13914117936974463 -0.3531972928950516
-0.3004379451486684 -0.23896314995462112 0.05570518761607674
0.056214284426332965 -0.282545904782512 -0.22693113831839737
0.1366310307314112 -0.10005914279016931 -0.029616076741376514
-0.25769554686044344 -0.2622526190519122 -0.011563389170378116
-0.20935268696995377 -0.04207045444983381 0.09651222224225704
-0.2468975639661732 -0.12227336711204073 0.0627752033033412
0.24430447117089502 -0.11743827572320693 -0.2893846264808237
0.12218168376638598 -0.15384763518996014 -0.08972347139328152
0.23212424193247866 0.03829853886053962 -0.1739954561027065
0.34876770226653925 0.4620994248003029 -0.010318649813375647
-0.3004319827860822 -0.08835406336212337 0.11643276414408242
0.4045386081008793 0.1326310968463189 -0.23779374552973068
0.24009978542707225 -0.16317613612458454 -0.3335991994085721
0.1481387000607055 0.011047175991873878 -0.2077044904043227
-0.08845150471519501 0.26311562295269175 0.34559758860900247
0.23906148085372378 0.23394899535392513 -0.07537014130558911
-0.18199361690618296 -0.04176387361233824 0.08272257583680437
-0.012980712478287264 0.27721665855256433 0.4147198230524652
-0.11995778262620434 -0.27156717575145606 0.1329622123250209
-0.23619214194269642 -0.016354784615662022 0.16412553417840206
0.25182555281078517 -0.021105825925458448 -0.2466588170239877
0.07898612187982713 0.22450624785877857 0.36204531876401186
-0.0455936577772168 -0.24106776778040234 -0.15885894083917848
-0.16879720153627004 -0.266072666294019 0.2688281553339704
0.2440518100458597 -0.08379602949926973 -0.2901682924923517
0.32340343917729014 -0.032538560017310085 -0.3223504330526455
0.2012302196217025 -0.19458634306424566 -0.2967794947618962
0.297244294583987 0.09649052453163598 -0.21236056666486353
-0.0749373771615067 0.31758824837567695 0.3631317910528499
0.13692328266527223 -0.2846710062087909 -0.276120389236493
0.20650314346333928 -0.0546024751017268 -0.24242938627334307
0.027670002464282924 0.06399487909987558 0.1648429650732974
-0.06600429145855496 -0.06867595881642294 -0.047472198681308114
0.28085090487266867 0.11899036525481287 -0.19602037541246686
-0.0735539407490218 0.24446299668824417 0.3731489929497467
-0.06923331950930718 0.25230210906555595 0.1579094826808994
0.1136746305078226 -0.3233533721608155 -0.15217455537724564
0.17517033040925128 -0.23562845826045667 -0.29680661389494944
0.027918113681578583 0.30629966882441684 0.049852888319899986
-0.15782522824669276 -0.31762440721974794 -0.027809721295611774
0.11655463796077582 -0.24517795127932346 -0.2566223095740397
-0.05847296200796985 0.20259841204012574 0.19433240171417923
0.16000108037769645 -0.08099525775798337 -0.23441674029463208
-0.036981337564687425 -0.261571467210011 -0.10793757550622983
-0.007191522866742398 0.13064505310229177 0.28912026301712374
0.20821667057345666 -0.21764933855040058 -0.33176365723627665
-0.11015758187730275 -0.3845877014250768 -0.0735983098625411
0.18072190557814483 -0.2999641777409137 -0.04346698161404521
-0.24807743858826642 -0.3937133858646327 0.04585142177103806
-0.005250545447988604 -0.03063021932118021 -0.06677549180475667
0.14127654062761077 -0.21933668716228805 -0.25322539774127434
-0.35491667718494746 -0.4712073664028081 -0.005409557811476346
-0.0550854745547762 0.1393987630501812 0.13087567392127517
0.07672249169055818 0.04920821988616215 0.18136969653257362
0.08560830523449756 -0.27625984360819106 -0.2546238602691478
-0.2869903171712436 -0.37165995299831106 0.04993217812558226
0.2917213436953425 0.2807008420635064 0.23069968805784452
-0.08558651736718417 0.33170967140890867 0.27803887556573326
-0.08527875848224213 0.2534777042499865 0.24639356401425677
0.2345740036182886 -0.003891523467787014 -0.19212094219753933
0.2994296327016354 0.03421316648334806 -0.23411828558033862
0.18229218178068482 -0.08129126021024541 -0.057574748913611855
0.024487507287665963 0.19270093823064485 0.03230416463814109
-0.05216196950299621 -0.09153998449304893 -0.06940749021799889
-0.20215705295804107 -0.03896050535831275 0.08405939522890785
0.13923563954152315 0.0913959742031651 0.22279477331602324
0.3091242900160479 0.09994580981746275 -0.21635068549138403
0.012625074379271174 0.3692659201692542 0.09791265619646947
-0.2318231726741076 -0.35565860665837223 0.003641549012183174
-0.09499510148638333 -0.057292558466614976 -0.0103999110453969
0.12963192628788836 -0.023249006773772816 -0.11276059791918354
0.44330692343292644 -0.12691679739387055 -0.2876210173281163
0.242977725286548 -0.14520451745133042 -0.3311426098559296
0.3062408626192322 0.0026626516886348473 -0.2166991952012598
-0.0072983525367088 -0.30129522710470796 -0.08365614237544854
0.3018941800849877 0.17993936661918414 -0.1652036158844071
0.3751298677100801 0.31672586956129756 0.06621596735125648
-0.04505067407153633 -0.23199670627550684 0.09428301988856633
0.26803114012153123 0.05157181581588801 -0.18754304982058817
-0.08204624437271979 -0.2815028759984854 -0.05943673704899115
-0.09786970554824284 -0.18740833168046064 -0.07358364437392187
0.38873524585729996 0.11303858105387163 -0.21248640136557337
0.26734783653990635 -0.10875188277225818 -0.2812468670549415
0.34595025754761777 0.27315292378153233 0.08841744952727841
-0.32953355331566264 -0.18444830715784033 0.08164430179652235
0.01627252564957897 -0.31303675387824037 -0.0638158519506903
0.2563955294301496 0.20672840596957512 -0.03122341429404305
-0.3117540765851049 -0.21660842544342065 0.16452381038244468
-0.2942927207486612 -0.22577805826526504 0.0733510401077072
-0.12440991242779952 -0.13174823443144185 -0.024763002097645707
0.06167007458963679 -0.2773318187009022 -0.016703474638922446
0.21092359220324924 0.24913022833684945 -0.07016028657807269
0.23374419541162542 0.12554348257271136 -0.1572378994692776
-0.12089872999272736 -0.17494035834279978 0.09710360206038095
0.0029806403529333983 -0.25354112647781846 -0.035018986999404964
-0.07215244895628603 -0.3421201007350776 0.08481656719378279
-0.3290292528414384 -0.2365363722149095 0.13915600112996387
-0.10552162859049027 -0.3755715513562572 -0.07171617471164884
-0.30994507654303177 -0.10317563124710748 0.10530391820984872
0.30594125389927695 0.25933288856031783 0.1649623565757286
-0.04838851523948623 0.3703793432986531 0.25055245616882144
0.03160603929629696 -0.13130817360572675 0.08411772059840002
-0.26529145254452235 -0.34197133017183867 -0.013657957530187465
0.3232852257223054 0.32002026722443605 -0.05308013727859019
0.13687422840897479 -0.0789922885975826 -0.10197540525433203
-0.09831971967279131 -0.1401390095986825 -0.06480853723771915
-0.03129749905335473 0.31077057525980156 0.12056256573925482
0.3675880921040769 0.03713145446786515 -0.2959274539149041
-0.05851724697524297 0.36620217938777594 0.22793671000198346
0.09303088768279269 0.009649098132554379 -0.1213948682810725
-0.04432441984168485 0.2887822956298046 0.15691446534076225
0.1562292053589138 0.378755356810136 -0.018591187483846926
0.09309942480030292 0.21170265120779916 0.349048882958582
0.06363367532771957 0.32139324546061054 0.039257866171405906
0.29429161482656857 0.0533319629516099 -0.24598295437470324
-0.2794046052038443 -0.1436598808729572 0.06833818376338076
0.13259693046514842 -0.16011311659664496 -0.24832986530590165
0.2835828269532447 -0.02695951964514326 -0.08133077288327112
0.17925795069330497 0.13242654934275772 0.02690029270872777
0.27830858832651145 0.1256971576600131 0.03952280663793673
-0.22046499215636778 -0.0665109480276721 0.08578347968769721
0.2872895171808603 0.18652931595112304 -0.14383734530614206
-0.13318384151655577 -0.24119326589612747 0.1253887616677786
-0.3614920571954056 -0.07439242202948725 0.08182639427324691
-0.02058779759221527 -0.14545830252979677 0.17497306719077757
-0.18148575824783475 -0.3863877579232706 -0.01691182074445386
0.017907931985791305 0.11845529129627293 0.28672298454714296
-0.25903563593525547 -0.1956511056215703 0.0693478425503525
0.002625098421055795 -0.275295575710585 -0.026725388725605103
-0.07672247966966587 -0.2677375117955006 0.0830835872746834
0.3368781261833066 -0.0524566015735348 -0.32023581384446165
0.0708012645978711 -0.0967819590448199 -0.16614711168010002
-0.027283314400427944 -0.1849679943742224 -0.13495284804991076
-0.08142512486701887 -0.27254240670284957 0.07094849648689422
0.11514318685876053 0.14068740270590285 0.0586981013000595
0.02593872951189167 0.1405764258280892 0.01291826394273247
-0.1820761042692199 -0.013353023554938483 0.14033150014725593
0.16728474638922447 0.03252370219441389 -0.05393371679979805
0.1456242479429248 -0.11373151337023747 -0.06622628127685919
0.09058007416890555 -0.2867075377005235 -0.15377838282935744
-0.0459106967910228 0.38389265343166423 0.20868965061276498
0.15096413266256753 0.2043561069138162 0.30980319395108696
-0.16340710554944493 -0.17618408794484813 0.08110980484081333
0.015671132428160144 -0.12313964069552882 0.10171750903069535
0.2669673332251453 -0.037879875223137814 -0.2783834905065003
0.30350548453211684 0.3169164247462089 -0.040604422486281155
0.08206103608070828 -0.05321497562764084 -0.1454289114480968
0.009570048744718321 -0.10232686008282395 -0.12584154059755856
0.149430852822205 -0.2210884677569616 -0.2622489526797574
0.16265970506740715 -0.24484021228895822 -0.3119471681782939
0.39716374258461207 0.034923264633933776 -0.3071740084266455
-0.18027241746154818 -0.3541930194678351 -0.03576928301387812
-0.314350685491384 -0.219861086568456 0.15893510521285995
-0.07906352440541661 -0.09345419138462648 -0.0669045481046058
-0.15863238308179617 -0.31898613390071945 0.028746894101949187
0.18247351280901206 0.23200656340720172 -0.06625936277249861
0.05636969052212746 -0.12529830445313955 0.12037677082769854
0.3225082553477945 0.017344200219982328 -0.23566244132301942
-0.0581971306130054 0.27337516603857503 0.4071235687625092
-0.3173126814403433 -0.35885962603004024 0.0821717304675526
0.16932446642264254 0.06254006262884894 -0.1496258377059329
0.22425062057856554 -0.10545998545472031 -0.27999996393732307
0.13518727949175668 -0.23414844599914653 -0.2595681975273024
0.33351940472541275 0.20644952126796373 0.05383738136881901
-0.3725990731892028 -0.3718800795783071 0.026527500796384114
0.2524704436310307 0.15115577273300998 -0.15921019131250114
-0.14533213124410224 -0.00820942798583939 0.059787626895544455
0.34065588392626384 0.20045585627821152 -0.17475839809589067
-0.13568964460231883 -0.21033207715008684 0.18672156608185025
0.31008817324509996 -0.03372949386032925 -0.2941338406149889
-0.15888337931324642 -0.36068382047999425 -0.02425932670982167
0.12144400367839304 0.42162517655685583 0.02982478347367725
0.1170725460850959 -0.1896223877098397 0.03547609345041682
-0.06709819265884107 -0.20344939504859447 -0.0848814559704767
-0.027469445896968932 -0.20337053799503538 0.11266253147971174
0.36319908400800593 0.4397376320044237 0.0037573823304903925
0.3031010295894264 -0.08744037937936133 -0.3379032558586824
0.198308453091473 0.32617621426038457 0.2989409954500923
0.10580787608864206 -0.2260304970037926 -0.18756848602871792
-0.12912198200472422 -0.36176800879929316 0.0011988556110520084
-0.24511024961382882 -0.2835590255864693 0.06998110315728737
-0.06514926943026982 -0.20971997331361908 -0.11414915523179285
0.2896165695979613 0.011995191643075666 -0.2446530590165708
-0.16693047716932027 -0.3562247426026434 0.012047326253027762
-0.29651158513496456 -0.35669913509679824 0.03299031717124362
0.09358772546686141 -0.25067640358943843 -0.04952604025796835
0.30789508165191104 0.09761279503777566 -0.2166291855244415
-0.09994621852780132 -0.41302720928974557 -0.07565494028621744
0.17688747205142538 -0.15252168268450567 -0.2890707369408031
-0.04433569543867241 -0.04068699399556429 0.012033333934377949
0.3217853549468977 -0.07606024871226191 -0.32036083112449437
0.12808806505706918 -0.24998563503368856 0.028129933824987827
-0.3286188114943772 -0.21398085071854883 0.07298675898711961
-0.037276955348395514 -0.007753691916550965 -0.025955522698449907
0.01463380154708884 0.3496536420298479 0.0883622976733563
0.29582756029980106 0.4606462431706306 -0.019140590346021384
0.24914563912079193 0.324007116368248 -0.0398974978512655
-0.21615283362483997 0.009909711077853309 0.13638066559680725
-0.19129648929840062 -0.2217227862024198 -0.028028645786376722
0.04026096155117594 0.02273446449929978 -0.060368981289481115
0.3271667478076898 -0.03511622399730732 -0.32496367887388283
0.2819343599175367 0.11328024907288868 -0.1999676036952223
-0.026213527110117384 -0.22464722888380004 -0.16616586427210492
0.3387737728171562 -0.08468057483907031 -0.33558447381549134
0.0728501776086839 -0.2803572368776934 -0.2536462732228613
0.32016136845838067 0.28185417455537726 -0.0590382204271023
0.18051849545760532 -0.10307128990184941 -0.24621029349008577
0.05229626691189287 0.3361403318968367 0.04319768958449786
0.2586847881618253 -0.12033444526587209 -0.2799484183510942
0.07743290238434399 -0.25727539263239513 -0.07067006857919063
0.020965974864314178 0.38008837760026926 0.15099780618715328
0.26455184310331353 0.20777032883150917 -0.009902726939420714
0.050914645654146905 -0.040221833546704173 -0.110790277502299
-0.2908582556483168 -0.25530810148037286 0.08426817408656244
0.01842115196211015 -0.22650710134213262 -0.11660367719095789
-0.1846568215558641 -0.38065302295389386 -0.02513978494623656
0.08318473106258678 0.39015327839785546 0.07600890748120233
-0.006633140398011744 -0.014633873672442706 -0.041128629558172106
-0.17931336663120503 -0.1069078778917759 0.0438241704081694
-0.2746144238686838 -0.34336450350709535 0.07246144599313607
0.2520369462125174 0.3004606886769205 0.28397157058968486
0.005358577207186089 0.025671024240129344 -0.03707470383526569
-0.012446191480793619 -0.11472934359917537 0.1832554139093745
-0.03148954482891265 -0.28918182200664755 -0.23260009496504924
-0.37433883289156555 -0.4077042620073688 0.08316802202227472
0.18581524113909975 0.0374742903165702 -0.03082571509283134
0.06424301435895587 0.2358178594397062 -0.01550263558063915
-0.12620607415688467 -0.1379195682095482 -0.032532200965277654
-0.07068489033940989 -0.1845438972934961 -0.10657301189467294
0.058193476261742906 -0.024103836467781005 -0.11187691808362935
0.09985746226942425 0.12290032877140471 0.02511504594986086
-0.30586682053408826 -0.2610508183222441 0.11250135535560804
-0.2216786214440698 -0.3207977304555317 0.00178566749009779
0.2534018764612897 -0.08316911592347499 -0.3007118652217554
-0.10375010969064234 0.2799151565420701 0.23755287088960614
0.277215252108164 -0.17407706594060476 -0.3524451697049472
-0.2724352284270061 -0.14265253009730913 0.05918600527717172
0.0041920818382348525 0.17886763194431923 0.3491056576329661
-0.1835497214158207 -0.2232941572452923 0.2651071121609357
0.25242786563046576 -0.1626929924208274 -0.3227757803061721
-0.30701544083617327 -0.2156087680388515 0.04149125179562079
0.048346802743167626 0.2635823220757677 0.11530448319178732
0.23995114709364876 -0.22532838072570127 -0.22048024666871022
-0.23181514271804396 -0.3014691934582304 -0.015242888139586602
-0.02890750524411427 -0.08464691634059997 -0.08252723633675328
0.11703676589913269 0.4036069168214357 0.04909792819921023
0.2737342481232382 0.14917492201446114 -0.17286342463201043
-0.19045832056113526 -0.020573348479657645 0.09440111313462798
0.1551134892443066 0.14130296855935617 0.045931913665951424
-0.20385048414143783 -0.40581486623752083 -0.01986256513821021
-0.36324802106060333 -0.3398206482867223 -0.03246267212415178
0.39082974209175547 0.39858877128449244 0.11208307638676018
0.006790157293375888 0.3646654765983279 0.11954814667892798
-0.34538237857396153 -0.04160808284798981 0.10834116494467384
-0.06903358036267032 0.183152022214609 0.3301259308678483
-0.2992523966654045 -0.09260676656028177 0.10974217590171718
0.11305037354922856 -0.3577143715778022 -0.163728748565006
-0.0825255894745067 0.2894196914236944 0.1974921413416518
0.1989802887418333 -0.25164817252384647 -0.2765752598015351
0.22874335094394058 -0.14121031152142424 -0.3225100705025334
-0.0852217073273349 0.03935387703829255 0.048098366961779576
0.2945537303834064 -0.04949763488943784 -0.12262123971462402
-0.2135070111854403 -0.23768345384277875 0.3079582754827891
0.27337099478894317 0.16139516880338028 -0.16230725400746498
-0.1712535266292817 0.014077017857035528 0.13397288086694675
0.1831188659640455 0.17923152839635287 -0.03926918985196271
0.055792940129945845 -0.12006277309964719 0.07348009640755633
0.1303714756246356 -0.1435868900148458 -0.24673930891890106
0.030896590273896032 0.37389555046671114 0.08302747374937641
0.1643010482218095 -0.23209527759245568 -0.28831255522097404
0.1842338596981554 -0.1417626955648918 -0.28617822174940044
0.010555822018668446 0.3836859421674871 0.1517239882916509
-0.25995706137266567 -0.0006179940737000908 0.13734267356665886
0.21349551019672192 0.13366874027059028 -0.14617670711696928
0.14198671691399653 0.15418561459817162 0.277384987107593
-0.23673774620290064 -0.1161163622375689 0.06821018530205497
0.13664045811620595 -0.27707418693689634 0.007785439093143884
-0.1523322334216869 -0.18016713848668986 0.25027251362868663
0.11781248610084327 -0.07600427943766266 -0.19897328356683916
-0.081254428196205 -0.2537157660013103 -0.03677091184478624
0.26956649056059434 0.17854667411961989 -0.055927934750596535
-0.3179746960216857 -0.3353888818767017 0.05288797129410916
-0.02079623986488517 0.17183242876118696 0.0713694681356197
-0.0263609753752021 0.28055404292660646 0.4195332047097856
0.31798973415796655 0.021060290785385 -0.20829909182158593
0.2309663084440758 -0.18009347445860907 -0.31167405350499167
0.13369622003041287 -0.2690428845333189 0.015521941133690353
0.036644920872476366 0.2754722828275543 0.4153923198519026
0.2794821640010338 0.37089148139466394 -0.0193843259585159
-0.10743285430077475 0.24246550905473713 0.3129252601020574
0.20972646159024386 0.11067623529694609 -0.15102886817288447
0.011814397422720689 -0.2672835067347049 -0.11930063650624786
0.035102640388996076 0.04113998930140585 -0.04404783113050482
0.07778439327551284 0.15875432301339729 -0.013425377305757406
0.38630969424860406 0.03899440427462931 -0.29719724481148235
-0.0015394435528949314 -0.26708684493649965 -0.06828637371752105
-0.09911290623102953 -0.0027454996784411307 0.05942507678344964
0.06761608876226882 -0.3006231149738245 -0.05923584389669245
-0.09603260065994698 0.20063025538385715 0.31080842904968836
0.2723698467937275 -0.2470078195904482 -0.2803241433611617
-0.07096702068194521 -0.2541929473424812 0.0882390594853856
-0.12261093780991363 -0.3457027113122607 -0.07554992577098998
0.044957139508465714 -0.208907649494822 -0.2112981121188626
0.05999650192033755 -0.05427194864674805 0.17187299927273603
0.11607570156932749 0.13840535650961372 -0.03198751029288904
0.11834143541475084 0.09377101402237088 -0.07360105062598797
0.3295412346658492 -0.031091244583085403 -0.3243256099100236
-0.09351020874279498 -0.38634188619821247 -0.0439265643688731
-0.21940436478599806 -0.152540916112203 0.030674949061468833
0.13264877657368507 0.18670660007092327 -0.07377073754184774
0.211194948821051 0.04234304020387433 -0.1972046256393612
0.24501093901200285 -0.15253610775527868 -0.32051921840158193
0.1500490993346436 0.4259012964532357 0.01499749364395319
-0.05837205863791269 -0.250925091809565 0.08591667117450129
0.32029199949512255 -0.041612218034944734 -0.0906416271479832
-0.03604854036315116 0.028029811812930874 -0.007536053661263276
0.1684141963732968 0.06181178888908924 -0.13662533883890202
-0.13051186161548772 -0.26832432367454634 -0.004838661593850112
-0.2142167487092567 -0.14932614483973145 0.029604512642973486
0.1987133347758404 -0.2688054478683953 -0.24044440036783932
0.2994983681638688 -0.0027989686074397302 -0.2264833360380341
0.033549529081543725 -0.2814309429788973 -0.012778893717280634
-0.1734513544540411 -0.09268908563082638 0.03793922236847641
0.016593002638585864 -0.3030476808693509 -0.034623547725947695
-0.05341363289396972 0.23344724330887082 0.38242312338844914
0.04795959778094328 -0.31146836401666095 -0.05540166008522813
0.37738371289300804 0.16186090625507132 -0.22484306124043588
0.05149168454774398 -0.055924484754503324 0.12677015452857066
0.007867409557811476 -0.24491147213857684 -0.10194323734650823
0.33273822703859307 0.19369977821453688 -0.17560654417377403
0.005994746870060165 -0.08237323668535916 -0.10895353324077246
-0.006053757430414059 -0.3030587400902769 -0.09045535140073448
0.29481796161729085 0.11540410032636722 -0.20182021553459914
0.05931516976505166 -0.1336963883229052 0.10968101360163965
0.1307063115695078 -0.07534611154185976 -0.16986637576107275
-0.05607125984961864 -0.22722200784964267 -0.10701057237478738
0.057928499732535145 -0.2519815839929798 -0.12476744982780072
-0.13191871472619413 -0.35270281348984533 0.10487679186426008
0.2176805477920626 -0.04677495086460268 -0.04537705331866784
0.07482270986975363 -0.2519952397266449 -0.2510621660445855
0.0030822168929599643 -0.2880195459708974 -0.05991839016210173
0.07993322394321331 -0.2555703492670261 -0.03572879664857522
0.17886325427342722 -0.21013705019323584 -0.27751308173605727
0.1987957379926312 -0.13635925638760166 -0.25262839214554894
0.19733470672027983 0.3319435018061391 0.1586339578186889
-0.1900636506247859 -0.3831492333675929 -0.01547157359490795
0.00044547022725496913 -0.0933175378808369 0.20501652271648124
-0.005914976228685456 -0.06697505063800886 -0.06581151240856609
0.22910413999531185 0.07802220258809811 -0.181614393816453
0.10885317682131544 -0.060233541895814924 -0.16533680737121118
-0.30214298851403737 -0.23528485307464372 0.05596964724691514
0.033415183589077815 0.3616984799581673 0.07276682474140056
-0.06662226149047044 -0.18315841732931837 -0.11184306725088203
0.19995502082619593 -0.1952124873029325 -0.31469629816621286
0.10529358625290755 -0.026681692782055212 0.08001446113344994
0.2780735438191577 -0.05159782902684866 -0.2887269394207132
-0.04581722233241373 0.38085598369967005 0.17645163694501043
0.0924791707988484 -0.26916136244793454 -0.16083354069372569
0.0711039987498272 -0.26458034463898256 -0.05924156584143241
-0.09820864662783918 -0.227660337666865 -0.08737506987143656
-0.28670926870901625 -0.26292925103830456 0.10203952469391803
0.12791268023825408 -0.1640216376061595 -0.24648850502172776
0.11082048600467613 -0.3459215877194564 -0.15873743365970056
-0.32905295804107537 -0.21857677443396623 0.12017328116266071
-0.2666602475101727 -0.21487549360789052 0.03966306640941957
0.049927033183673225 0.18316264868341178 0.0898380304970038
0.11385776880217818 -0.24652034836545916 -0.16702891625645372
-0.38028181779933523 -0.41004641266521213 0.04493422768772126
0.1859457771356618 0.22986713307728832 0.29536064480066354
0.019122931655216766 0.3661974671979901 0.08334044970158135
-0.3026192081838235 -0.23863743185656672 0.08064877957890815
0.2039778169458519 -0.11473847947733161 -0.28888119151084585
-0.06891894913359418 -0.22302325441617532 -0.007922164722287335
0.4202916508892455 0.13793327202678254 -0.23638508928517765
-0.139937659652476 -0.16418300606454017 0.1586608365338959
-0.06763983002458272 -0.2208593976330863 0.04623940809126261
-0.23630057039134014 -0.046432018848759145 0.10239423718422619
0.29503550370544007 0.1494483251891788 0.08648136461169513
0.1195482909296357 -0.1769937190837676 -0.2124656773472295
-0.010369402020711998 -0.10690066535638941 -0.11344343268600829
0.31366656448908203 0.0418830727804925 -0.2654143902101853
0.111612963330268 0.03746601994266034 -0.06593508718152148
0.14057405170185783 -0.07409690041291765 -0.18743577537760628
0.19670900124416235 -0.15002633777505303 -0.2469679943742224
0.13801215612734932 -0.22576065201319895 -0.25629024444484516
0.030481532904187477 0.2608705049375815 0.4092990257066782
-0.007527795308245731 0.06034774037276787 0.08341045937839967
0.059102928890411535 -0.13375524261165905 0.07845631307211934
0.22620921762022395 -0.18583532579623385 -0.30860276360314226
-0.2449403703636921 -0.005208820930777691 0.14747731958143254
0.20340901687132235 -0.02639299903231817 -0.057246722804233756
0.3585854054346454 0.29373182591343755 -0.023648569213292704
0.15410435637137346 0.42392256141173357 0.08153217091304688
0.028530542082138757 0.41144093234040763 0.10793731104659898
-0.07368554547804083 -0.34325593080774386 -0.09051920638068964
0.12446000348605878 0.411548302950528 0.018239287882339507
0.0882984066307242 -0.12689285177638737 -0.07828756378585983
0.07484580200388274 0.20995760231281968 0.02242150056798716
0.02810478611827356 -0.3051866303635719 -0.050774193548387095
-0.020294728237677084 -0.2322909777192761 -0.13245048293934858
-0.3768920704183872 -0.4402204872067654 0.09627973818496546
0.19465597558556771 0.011005054785216706 -0.20303086364100809
0.26818786250503374 -0.07917212114655271 -0.3222902324239528
0.19675963173996405 0.4079373230674913 -0.008632984126411704
0.2458651556405032 0.029659363974587835 -0.2255427252564958
0.29795191643075664 0.17598930140584335 -0.035558196144899835
-0.0648763711330292 -0.23057564447008902 0.09734075022388912
-0.016441984168484827 -0.2531744411787687 -0.1287987281895935
-0.2523612999392945 -0.06815309808447081 0.0963496516946453
0.39768903153681096 -0.007158994332149275 -0.31457858958870516
0.3684450374751318 0.4829465370814476 0.0075185272002740765
-0.08904257199011882 -0.376642276276168 -0.049888926955047874
0.1256004255395878 -0.04934463297210552 -0.1853127896283741
0.2657659652476003 0.2753740000120209 -0.07293264092993623
-0.2397810033838812 -0.15671610859674115 0.11345384277874947
-0.13036335551187964 -0.26652532501487586 -0.06504799341255102
0.17330264399526377 -0.10521995227705752 -0.07231500748300547
0.09851004646074878 0.14884506872945177 0.1058982792092657
0.248230837195045 -0.16142089351292546 -0.3376264868341177
-0.23934978993490688 0.0037999242683784415 0.14539667141491913
-0.10106483468267849 -0.1063552053468929 0.2446664743323897
-0.016253051804035412 -0.06951617110538115 -0.07304506031482717
-0.021541919856710962 -0.1953172133167445 0.003245436568756499
-0.019155400085348336 -0.2108548417149005 -0.1603529935027077
0.24384143240952777 0.10571554962524868 -0.1795973361702639
0.051380106625314795 -0.324733274430961 -0.06610684169085872
-0.06062626444760995 -0.10633539491636464 -0.024261730888283838
-0.2518638273319028 -0.24330942377852707 -0.03276992613161675
0.25701729205358914 -0.1815815647595521 -0.3537572741424596
-0.04727487573402574 -0.29397258034463897 -0.06595186834718741
-0.037076014112527575 -0.20490180734115893 -0.14955592419625308
-0.08845713049279648 -0.0272294608028754 0.014589937311046599
0.36895055205947935 0.042356118934708524 -0.2921819362051245
0.07850833949404064 -0.3569145494870084 0.10009060146534678
0.2881203411529238 0.1778187369648449 -0.15807037030358764
0.3015476177596663 -0.014283536786935695 -0.29719147478317315
0.27163867000847475 0.09781561153284409 -0.20018984595226505
0.062440120930176646 -0.27483147310024825 -0.05988800134633994
-0.09863909073970561 -0.21161090775768285 -0.08146391628650594
0.06693735311972207 0.17089994410285075 0.019799695871424536
0.22487386177175933 -0.04614524844179183 -0.2309283735131659
-0.16962248387697818 -0.24439563160773425 0.2638188331319834
0.3715418236895725 0.03306435384698606 -0.30128396352861275
0.265822607692169 -0.08315421001700957 -0.3100727744820498
0.2637339956844997 0.0015921191030010158 -0.2658037709539179
0.06396304777703649 0.006379992426837844 -0.09696653984625278
0.027312477085174033 0.4241406203982522 0.11943880464246862
0.13016192141942695 0.14636655306923432 0.09811787687000006
-0.05130716385077264 -0.3323818316233614 0.08266973199420594
-0.18471476225680233 -0.2616986001670904 0.025785042403697625
-0.10922620314105916 -0.19783996586066585 0.1341344416596044
-0.3164736712406162 -0.09338187369648449 0.12791478389440847
0.11969236733442723 0.13106588050030954 -0.04267716090565403
-0.20541637365741658 -0.41741166146763076 0.054361876942125416
-0.10245529129627293 -0.03197819410134814 -0.0016155718638994573
0.008923733448733899 0.020551470455651925 -0.0029986476496150307
0.057438287744099245 0.18839394868281073 0.027854559223931194
0.180037256877453 0.05499546211315266 -0.16167524357333043
0.12246995678489214 -0.15373261929233006 -0.09023786941704683
-0.10223893927646249 0.27115240688316294 0.37876351899601507
0.12220947606940863 0.27859410856067846 0.3727233091112353
-0.15788468358006214 -0.06931681662729824 0.07414821760219262
0.31139436340359544 0.3188279870414781 -0.04789576684277274
-0.18574144262728623 -0.010746124764841294 0.0920242942233602
0.34907477596061953 0.03682525829892353 -0.2875615860365315
0.2348973355692193 0.3063347698299645 0.3057930723597613
-0.35273531798265384 -0.38113510881912765 -0.004673398366360735
-0.03809632341008673 -0.10049458759323704 0.20022482674888958
0.05850258148662375 -0.180772991459156 -0.18684713632292926
-0.318783317405651 -0.09142698810532705 0.11894339962855442
-0.028041592287395493 -0.18848194161452606 -0.14544352885314676
-0.28529392884833843 -0.11639149642077931 0.05887572200484442
-0.08565409882375569 -0.08654092813309532 -0.053176256333507636
0.27652025219832066 -0.04920365194708403 -0.0993731224868822
0.07303498680707068 -0.02419307957229665 -0.12600872716781766
0.22193182350925908 0.03585839388857835 -0.15194495633410868
-0.08979587322766969 0.22433872470353475 0.35153212282947766
0.016433882087067322 0.35544641386730136 0.08887996537983014
-0.0356006419156494 -0.23546045426952042 -0.021567848921425437
0.07053193650564682 -0.022200496462852437 -0.14080971528516562
0.05159324906687823 -0.24186432018848758 -0.21613527110117384
-0.232548224814728 -0.1792673987390084 -0.0025340161200165887
0.23186550424638022 -0.23775038617116548 -0.2726455820215535
-0.3025837225097219 -0.08377266088461746 0.12093011654255095
0.26404718200232 -0.12409304170648587 -0.27587766337895264
0.16128531437638616 -0.20151335821658042 -0.30073407983074585
0.13406699844329445 0.10971119806223216 -0.04313664749334343
-0.09574734488541084 -0.14762013980297758 -0.02722026482025761
-0.37679566286205424 -0.42406036892118504 0.0818950576101264
-0.11004006563407202 -0.3657764474656954 -0.04489823713614262
0.163806732601261 -0.16257220649488813 -0.27903752321534825
0.39540924526827625 0.002309525956111722 -0.2934011431868588
0.39851936265228965 0.1323760615950522 -0.23557228463068813
0.12131839737463712 -0.26044121483137694 -0.12172260588903515
-0.08478611827355945 -0.2715089946326716 -0.005629876725749353
0.31360900845669776 -0.004172139177891175 -0.23807176472709568
0.1866391324371758 0.014623920373609333 -0.15133900719450405
-0.09165252408686297 0.21474470629954862 0.19967035107015993
0.10893952289078418 0.07599259513033653 -0.08864375484592221
-0.1749451426579395 -0.015842213767527962 0.13129972291843223
0.12299633963829135 0.16029809408752413 0.06298143373182591
0.16146020633861652 0.3859090859914531 0.02988113741683045
0.29246512438618316 0.1784270902829117 -0.16486967549601206
-0.17397306118033143 0.013961424956574526 0.11359290046100122
0.09459403643532459 -0.2671296393131262 -0.16264220415081412
-0.006649092122108224 0.1831323079512192 0.346783161134051
0.2003091728424001 -0.2847864067749749 -0.13648570415381933
-0.2463117137585123 -0.015528612728922867 0.16487621486142917
0.10125048534352706 0.06360559452328146 -0.059933776904259606
-0.1952873534202444 -0.15786626757304195 0.03785728796648575
-0.0668542887538542 -0.25137428851343635 0.08713092554860347
0.179076915303798 -0.25118878210329554 -0.33415956532453406
0.13794539209145495 0.2680352933398246 -0.02894502244901639
0.14901470155129615 0.3622778869675496 -0.02388456337113904
-0.052607559939174285 0.27296472469151384 0.3913400530121351
-0.22658836257415388 -0.03445228607319521 0.10872992060200629
-0.17638185566514603 -0.07124362141401756 0.05571749700980304
0.17911259669305252 -0.02545460009496505 -0.08599997595821537
-0.1076730798127145 0.03594629065315518 0.06307875487597445
0.23558116205965968 -0.08645505087842671 -0.23150061607073094
-0.03999629756516826 -0.23269516820233566 0.09359874261466429
-0.19435147887027654 -0.39691854042325564 -0.03776321246326115
-0.13183995383977354 -0.20705623974467624 0.03622941872975231
0.06210896938879773 -0.14296641963732967 -0.1449420172259387
0.33688061450801493 0.056155141636163655 -0.261572705361919
-0.13201969022160515 -0.33464954891601606 0.018098403024456505
-0.0175427372773881 -0.2108546493806235 -0.16375793529153668
0.3474328422798824 0.21015383135890178 -0.16379659448120834
-0.2793762358979907 -0.15640462323518275 0.06557977364659778
-0.19715032726879317 -0.3204276793066349 -0.04375192484538127
0.24018435841492514 0.009438876767822476 -0.24083416578012587
0.03480776790061126 0.023857312008270373 -0.05597125804648479
0.27237095872626627 0.480470762184677 -0.005334932112010675
-0.026882682101492392 0.3371417683934678 0.1764371878324528
0.021153548867932467 -0.2980141005066806 -0.08001688935369672
0.05005717136383034 -0.22967359671108387 -0.1992576497953443
0.36346737830349146 0.2989311984228589 0.057291560732553176
0.005760615950522008 0.1259876785853814 0.07389799070785025
0.01529618877609285 -0.11058415526184509 0.11496337835157504
0.045538746341140905 0.3954673783034915 0.09436149227357146
0.02421159174645534 0.39694440938350856 0.10491357579473125
0.14799387235014455 0.224739693587455 -0.061934918889029134
0.13443123749075894 0.05224556278812576 -0.13185482368356202
0.2748213755507071 0.09987089561658162 -0.19397268853266977
0.28436309105224883 0.15713457989986596 -0.1734990413338382
-0.09009141888602391 0.2888134537826743 0.3448471483438216
-0.3021864560606334 -0.2636038635147887 0.0797254307987282
-0.04378374414732806 -0.11293573029926011 0.14808526418916076
-0.2619928235272904 -0.04466629401900503 0.14646383815070593
-0.0927516904379812 0.18886103247444058 0.32541164944673845
0.19077725211417443 0.05363219675796534 -0.1596619845291116
0.06389888025388124 0.31703865317922547 0.015781303906188957
0.05560822709869754 0.39228612127878254 0.11550167390925428
0.14529907379024745 -0.2310534028140909 -0.1558045282701335
0.3190939492838553 0.4663342409107028 -0.003759954801444911
0.2910022178546314 0.39724748012044936 -0.047006749731032534
-0.028757773009490496 -0.12182080455832237 0.1716381350787669
0.004268690984931812 0.3681938008258353 0.15280776790061126
-0.14775325916442777 -0.1273311815936097 0.0410843686326836
0.11806107815383136 0.3678495705536222 -0.0035496372695745207
-0.0849525835902799 -0.3773952649705188 -0.0800575680532766
0.10998571917993473 0.2670939132211784 -0.0386594901939571
-0.15768972874856502 -0.19743942972886877 0.08931050565883505
0.30003066529628497 -0.17052734452478407 -0.3522495657452653
0.21689986296182764 -0.1398167535176136 -0.29250380761763944
0.10859145194347776 0.3981121188625832 0.04406439592010915
0.2752752123190104 -0.026209896800639513 -0.281257637774452
-0.09980867547798072 -0.2381447676060994 0.11477378483804852
0.22137757923270646 0.03638529364034692 -0.1868389621161579
-0.06038048528342259 0.2730347824519014 0.2661943057033124
0.3153702014100507 -0.09465137609164728 -0.3394897251422973
0.05371694404875674 -0.2950836954627142 -0.26052871490650753
-0.09729638111036983 -0.023036669731994208 0.007806788197887929
-0.007136575367989566 0.13449125780606694 0.16934401990659767
0.28810542322556604 -0.09251146492604145 -0.333578234972382
0.30545827848801216 0.05509153308450086 -0.25250404803548565
-0.1505374661161098 -0.24889317634047975 -0.0038510250815918068
-0.03913858285700548 0.3362189485325496 0.14120344759191475
0.09534961563196837 -0.2362627767059149 -0.2529002566460508
0.2686438690443992 -0.06621196439411697 -0.2978565667129471
-0.18883598093486478 -0.38371440764047915 -0.018891998293033292
0.29055959657885405 -0.11979754413170089 -0.3002399730732012
-0.07141136094532297 0.19859646465557138 0.348082258966083
0.26971154666810915 -0.146143204890099 -0.31804454942690397
0.16213864446407858 -0.2389149702182393 -0.3080582652650306
-0.1048184544738756 -0.09246588170239876 -0.04115031524790085
0.19774579869813735 -0.2024007885705356 -0.29831807281054473
0.26928747963961364 -0.052074144863773236 -0.2738975819975117
0.03088030196481485 0.021265222957500135 0.025086099641176366
-0.05290914008546854 0.2194855058090962 0.3900906134862391
-0.07662268222170132 0.1539777012447634 0.28495605762815773
-0.32990057519969707 -0.21963230494599614 0.32519993749136
0.056926426128611526 -0.30846871863298414 -0.055252408686296786
0.09495794490825053 0.22144293982942354 -0.03752995906886168
0.17058501099911647 -0.14396819271894554 -0.279143980237653
0.1888895234918288 -0.08881922381098349 -0.2586191240375773
0.18325768153801306 0.2681254500321559 -0.06710217157419596
-0.04636739453169609 0.2431995047392368 0.11072942774542155
-0.025757117870859554 -0.11837042379655842 0.16570431009093806
-0.23076586307001568 -0.29505753800104584 0.0022236126387661756
0.119294415694477 -0.27450258148662376 -0.17341080798427666
0.00016450591127379385 -0.11807769102700494 0.037490891168851466
-0.1404913419523131 -0.19270214031987595 -0.03814134165179081
-0.1958594517271017 -0.08892923901741226 0.061476802683063166
0.1539447099058163 0.15732922218816303 0.04338992769433275
0.10466475534478924 -0.005536366204463358 0.00530913527711162
0.10250458897563966 -0.09178049850640413 -0.06056319082565499
0.23123549529081544 -0.1843611797303714 -0.3221891607614033
0.2827991248790398 -0.09729106787596843 -0.2919682528234071
-0.18519997355403692 -0.42738438606297746 0.0324001394423508
-0.17184509878168255 -0.3869564903802809 0.06661885957794647
0.27694415694477004 0.14978039031837334 -0.17090147075617423
0.36788477974720063 0.4647694092332474 0.0031605209854727516
0.04268118790457816 0.2780056137567092 0.41028285159607397
0.24432194954831496 -0.1129372689734759 -0.2937807148824657
-0.0793939787350415 0.15540491774704437 0.1877816885747429
0.13671106583241674 -0.07510992504973645 -0.1856278331740565
