ply
format ascii 1.0
comment VCGLIB generated
element vertex 1481
property float x
property float y
property float z
element face 0
property list uchar int vertex_indices
end_header
-0.3654201 0.2913978 0.1225185 
-0.4105085 0.2731062 0.133228 
0.5337231 0.2992502 -0.04804178 
0.07226821 0.3400083 -0.1245966 
0.3667045 0.2714947 -0.09622867 
0.251879 0.2610137 0.1830933 
0.31712 0.267194 0.3733007 
0.5199245 0.3541675 -0.2171304 
-0.2603531 0.3240866 0.2154295 
0.4466293 0.3305092 -0.4367044 
-0.2217457 0.3075137 -0.08622363 
-0.4517736 0.3114101 -0.4366342 
0.4266992 0.2310459 0.3338581 
-0.4777947 0.3182273 -0.4819514 
0.3894368 0.4127879 -0.3558816 
-0.4188333 0.3189574 -0.521374 
-0.4229645 -0.2159284 -0.4246503 
-0.4240495 -0.1604217 -0.4222737 
-0.1454132 0.3279888 -0.5025092 
0.07662544 0.316361 -0.003310861 
0.2140775 0.3114559 0.1337765 
0.5584103 0.2427819 0.09570172 
-0.1179129 0.2995776 0.05318453 
0.410398 0.3740601 -0.4404766 
0.6103637 0.3276459 -0.5115283 
-0.07564376 0.2573254 0.3738342 
0.3955555 0.3131053 -0.3181864 
0.5421485 0.2245889 -0.4059694 
-0.442042 0.2257613 0.3114423 
0.3482109 0.3760331 -0.168719 
0.2688612 0.409819 -0.3400151 
0.4385799 0.3409753 -0.2120092 
-0.4233213 0.2264982 0.3380373 
0.5301279 0.382657 -0.2215054 
-0.1064021 0.3131481 0.002466121 
-0.1200821 0.3105808 -0.146903 
0.3140136 0.3560924 -0.03014017 
0.2011253 0.2080416 0.4199906 
0.1563073 0.4344464 -0.3913783 
0.455458 0.271846 0.0458626 
-0.08624721 0.387614 -0.4332139 
0.2829033 0.2904552 0.2160764 
-0.4120765 0.2390389 0.2398597 
0.1907184 0.4189415 -0.3062885 
0.4810981 0.2690834 0.20774 
0.2780904 0.2852028 0.2141174 
-0.4181319 0.312027 -0.1338147 
0.4151244 0.2564577 0.3806826 
0.4064789 0.2912143 0.2217697 
-0.3187125 0.3143581 0.1759485 
0.3789418 0.3510109 0.1532229 
0.3075777 0.3381411 -0.1163803 
0.4974301 0.2514367 0.2211286 
0.3561697 0.3275633 -0.1243268 
0.4908133 0.2149979 0.3712464 
-0.1528351 0.4181688 -0.3969879 
-0.009953043 0.3248385 -0.1344017 
-0.3592204 0.3299449 0.1737284 
-0.3760986 0.268534 0.2452743 
0.4695903 0.421384 -0.1856121 
-0.06283062 0.3084871 -0.1655529 
-0.269496 0.2546239 0.1168448 
-0.1106977 0.3083333 0.287712 
0.2174987 0.2797363 -0.08586448 
-0.03283715 0.3873087 -0.3792153 
-0.2518099 0.2844451 0.2134949 
0.0733624 0.3268409 -0.3507312 
0.1645285 0.3334567 -0.4441369 
-0.4290251 0.1519089 -0.4158272 
-0.05351617 0.237532 0.3504094 
0.5312567 -0.06568266 -0.3942765 
0.459208 0.3996105 -0.3748879 
-0.1549531 0.35596 -0.09365983 
-0.1066377 0.2832859 0.24163 
-0.1390556 0.275893 0.3472656 
0.5352107 -0.08316032 -0.3895316 
-0.1247252 0.2939544 0.2636063 
0.03802072 0.3798301 -0.2326829 
0.5281421 0.2863168 -0.00792859 
0.3944033 0.3933265 -0.1444717 
0.4915995 0.2253359 -0.2334238 
0.2430407 0.4066453 -0.3998332 
0.02525025 0.3226704 0.2872921 
0.01328962 0.3577773 -0.1 
0.5274449 0.1971507 0.4272667 
0.247137 0.3479204 -0.1174598 
-0.271936 0.2836106 0.251772 
0.5397158 0.1791479 -0.3987211 
0.4649764 0.19294 0.4132416 
0.02566006 0.3079636 -0.1282041 
-0.4375464 0.2838066 -0.3767204 
-0.4531515 0.3058328 -0.1011644 
-0.1251653 0.3763476 -0.332671 
0.533633 -0.08630584 -0.3958765 
0.04543938 0.3374336 0.1572909 
0.3801047 0.2420896 0.3924451 
0.5277056 0.2790989 -0.000502731 
-0.442626 0.3562226 -0.4485844 
0.405925 0.2406736 0.2939547 
-0.4147743 0.2332163 0.2754267 
-0.4554759 0.319341 -0.1840847 
-0.1641193 0.4206837 -0.1692684 
-0.3394359 0.2770761 0.372547 
0.4707362 0.3126695 0.1518211 
-0.05619551 0.2938878 0.2677419 
0.3550836 0.3081416 -0.394916 
-0.4149526 -0.02232854 -0.4261555 
-0.29137 0.3103893 0.2785201 
0.5239397 0.3989195 -0.375601 
-0.3698568 0.2709219 0.167895 
-0.4248032 -0.09630359 -0.4368799 
-0.4119024 0.1913321 0.3431923 
0.09718782 0.2988669 0.3964183 
-0.4790188 0.2873648 -0.2705961 
0.4903375 0.3381128 -0.138715 
-0.3663259 0.3842478 -0.03954501 
0.1920132 0.3733388 -0.1375915 
0.3787426 0.2127774 0.3830233 
-0.3411787 0.2462427 0.3393899 
-0.4346878 0.2408972 0.2208875 
-0.2001867 0.4206275 -0.1634575 
-0.1052461 0.3434128 -0.1772262 
-0.2961565 0.321215 0.1268029 
0.507107 -0.1418477 0.3516214 
0.1466336 0.2722905 0.3119326 
-0.1165666 0.3708823 -0.2721835 
-0.2441229 0.3003425 -0.09815338 
0.5054109 -0.1733258 0.3510844 
0.2170699 0.3553052 -0.1565304 
0.05848135 0.212976 0.4207474 
-0.4173434 0.1856176 0.345845 
-0.4305139 0.2726232 0.1263191 
0.5139279 0.3664811 -0.1083848 
-0.1906527 0.3470029 -0.09885319 
-0.3417754 0.2789249 0.04681451 
0.3227688 0.2715322 0.2957542 
0.1346485 0.3483572 -0.05743946 
0.1725353 0.3562472 -0.1106326 
-0.3869241 0.2686881 -0.2048314 
-0.2245454 0.3479083 -0.1548173 
-0.3227514 0.3440217 -0.1172262 
-0.03731605 0.3628407 -0.02704823 
-0.213805 0.2661632 0.1776136 
0.5359206 -0.1274161 -0.3973519 
-0.03079976 0.430897 -0.2583675 
-0.367632 0.2894621 0.09020672 
0.4930373 0.2267094 0.3367313 
0.2948024 0.2860273 0.1463725 
-0.4575973 0.3319774 -0.5007192 
0.498058 0.289189 -0.1006608 
0.1698547 0.3042512 0.3325014 
0.3053778 0.2639743 0.3159797 
0.317728 0.4180014 -0.3452217 
-0.1383433 0.2892574 -0.04256769 
0.5332881 0.3219746 -0.06113306 
-0.1256722 0.4080901 -0.2640101 
0.5498868 -0.05291242 -0.3860143 
-0.4221496 0.2145893 -0.4282155 
-0.1719398 0.3007444 -0.07659099 
0.5104914 -0.2024991 0.3525187 
-0.3946036 0.3319778 -0.4787366 
-0.364739 0.3306148 0.06545147 
0.5033759 0.4057358 -0.2962905 
-0.3407754 0.3063462 0.1238447 
0.07884759 0.3418938 -0.08870527 
-0.3558099 0.2902772 0.1515334 
0.3849559 0.3737304 -0.03103001 
0.1212355 0.3382531 -0.01604513 
-0.1415729 0.3109864 -0.4083629 
0.3812835 0.242327 0.3400523 
0.50437 -0.2137963 0.3548148 
-0.4579194 0.2913178 -0.3528648 
-0.03867844 0.3860806 -0.3153329 
0.2840987 0.4359493 -0.2829593 
-0.3448328 0.3125982 0.1645887 
-0.3353018 0.2687552 0.1572454 
-0.06090295 0.4169285 -0.2829556 
-0.1107968 0.3245271 0.0780801 
0.1849976 0.26425 0.3468031 
-0.4238605 0.2823537 -0.3682282 
-0.2042124 0.3923003 -0.1643355 
0.5704133 0.2814836 -0.455109 
-0.1390922 0.2400633 0.2528417 
-0.4338405 0.2530495 0.2381459 
0.5564621 0.3393849 -0.4755539 
-0.07260679 0.3244058 -0.01799621 
0.2113396 0.2835428 0.2370355 
0.0629947 0.3730271 -0.1688447 
0.424859 0.2701451 0.3113782 
0.4421872 0.2826427 0.1751825 
-0.3577079 0.2611666 0.304408 
0.01060655 0.3298905 0.136618 
-0.1978409 0.3632732 -0.0883888 
0.5122849 -0.0520418 -0.3997552 
-0.3562229 0.2572893 0.2716259 
-0.07438593 0.3650549 -0.1509823 
-0.1904532 0.2503589 0.3299536 
0.2760115 0.4073467 -0.1900202 
-0.2439051 0.4147957 -0.1826585 
0.198622 0.3723712 0.009808916 
-0.1647925 0.2608333 0.4127024 
0.5111266 -0.03869128 0.361953 
-0.4148339 0.2349119 0.2106126 
0.5332699 0.03932848 -0.404228 
0.139744 0.3765424 -0.2992072 
0.2655061 0.3049703 0.34811 
-0.223113 0.3971601 -0.1676873 
0.5734338 0.241239 -0.1778297 
-0.0405752 0.2888145 0.2900987 
-0.09304316 0.2826925 0.04113413 
0.1994861 0.374264 -0.0848975 
-0.4104916 0.2521229 0.2631895 
0.1281763 0.3384193 -0.03381978 
-0.2162597 0.3217266 -0.2345568 
0.5042831 0.2351481 -0.2788851 
0.3886616 0.3173448 0.1043129 
0.1252535 0.3616522 0.01119044 
-0.2881072 0.3224972 -0.08698659 
0.3461552 0.2284912 0.2898977 
0.4127576 0.25555 0.291071 
0.3057619 0.3508988 0.001011399 
-0.3071366 0.2865163 0.2137357 
0.1285577 0.3389128 -0.5051733 
0.2450242 0.3328105 -0.4419539 
0.5082498 0.2594489 -0.0992988 
0.3409472 0.2636785 0.2317438 
-0.3377319 0.2634671 0.3019435 
-0.1552421 0.3258787 -0.03506638 
-0.3551254 0.31839 0.1558782 
0.04851355 0.4077195 -0.3160318 
-0.4341747 0.1841242 -0.4131738 
-0.4395566 0.3101362 -0.3099126 
0.04382829 0.3647496 -0.08896463 
-0.1320575 0.3137462 -0.1977916 
0.5459421 -0.09526429 -0.4005964 
-0.4351152 0.2925978 -0.4695128 
-0.4207167 0.3097112 -0.3414247 
-0.421641 0.2709293 -0.1319305 
-0.3474471 0.2884018 -0.1396332 
-0.09345068 0.3098823 0.003980234 
0.09150172 0.2765792 0.3690026 
0.126446 0.2326445 0.357751 
-0.4070594 0.2103886 0.3460473 
-0.4478136 0.2967894 -0.4763663 
0.4041776 0.3467471 -0.4136316 
-0.4266347 0.03516239 -0.4314929 
0.2422193 0.2058182 0.3970584 
0.5095592 0.05961335 0.3555554 
0.510765 0.1985322 0.3105334 
-0.05256432 0.3205223 -0.1217511 
-0.3925189 0.227156 0.353233 
-0.1107194 0.3179344 -0.370131 
-0.4820018 0.3101828 -0.4973567 
-0.1147708 0.2731523 0.3190414 
0.1305213 0.3429399 -0.1754688 
-0.4116486 0.2383907 0.1962221 
-0.2408669 0.3547641 -0.02881142 
-0.1255659 0.274837 -0.09256293 
0.2210475 0.2711214 0.247894 
0.5101866 0.1274992 0.3563663 
-0.3896008 0.2786725 0.08779316 
-0.3769196 0.292818 0.1790899 
-0.00469916 0.2832292 0.3668371 
0.4153886 0.2517157 0.3037762 
0.01142763 0.3220321 -0.2581556 
0.4282381 0.2184394 0.3709867 
0.5974208 0.3227691 -0.4944417 
0.5091597 -0.1776857 0.3498236 
0.3793368 0.3245801 -0.2998962 
-0.4051142 0.1183027 -0.4332521 
-0.01051272 0.3391511 -0.4962051 
0.4898107 0.1688966 0.3427882 
-0.4433776 0.3699764 -0.4030528 
0.1934782 0.3050897 0.09961497 
-0.4193752 0.0849736 -0.4385676 
0.2878897 0.3758407 -0.1215034 
-0.4173485 0.2371234 0.206517 
-0.3014885 0.3002044 -0.009064533 
0.5224101 -0.02893938 -0.3923907 
0.5142295 0.1156762 0.3564331 
0.04135508 0.3850998 -0.421689 
-0.4642974 0.2964899 -0.4706463 
-0.3121894 0.2935295 0.1545004 
-0.4260933 -0.07829355 -0.4345306 
-0.4017617 0.178268 0.3463374 
0.1423472 0.3288529 -0.06034472 
-0.2611075 0.2741246 -0.004755097 
0.5100419 -0.06363217 0.3589014 
0.06718597 0.4171849 -0.2418466 
0.5305834 0.2947691 -0.2219131 
-0.1184397 0.385218 -0.2196807 
0.4646086 0.3204632 -0.1996988 
0.4387683 0.3057151 -0.226351 
-0.4916311 0.313855 -0.5029663 
0.2494926 0.3278742 0.1692262 
0.2262764 0.3415194 -0.1597533 
0.03900528 0.377609 -0.2173339 
0.4238064 0.3453279 -0.1420451 
0.4028642 0.3285792 -0.1392285 
-0.1240863 0.3692631 -0.2696158 
0.5024965 -0.1943756 0.3536547 
0.2452154 0.3333098 -0.1337353 
0.4118993 0.2514081 0.3287266 
-0.4085516 0.2640026 0.1592771 
-0.1907796 0.3331259 -0.09564462 
-0.3530476 0.2369487 0.07106807 
-0.4346148 0.2299297 0.3179489 
-0.1073629 0.313356 0.1972579 
0.5231566 0.2086262 -0.2981934 
-0.1413034 0.3004321 0.1719831 
-0.4255357 -0.2219699 -0.4231527 
-0.1309931 0.2884784 0.2035759 
-0.1019576 0.3545123 -0.212966 
0.521234 0.235241 0.2771942 
-0.424135 -0.05722341 -0.4267598 
0.5312153 0.05404933 -0.4065839 
-0.4351716 0.2543286 -0.08913091 
-0.4238487 -0.2096042 -0.4298757 
0.2912718 0.2070687 0.3868996 
-0.4327149 -0.01343113 -0.4423243 
-0.4104564 0.2721677 -0.2742394 
0.114472 0.3043593 -0.009988118 
0.3627564 0.4171412 -0.2706002 
0.2429429 0.2171601 0.3635193 
-0.4140595 0.2465181 0.2796919 
-0.333892 0.2547318 0.3853875 
0.3794167 0.3618173 -0.23765 
0.1098641 0.3161758 -0.2631865 
0.1551778 0.3111779 0.08490925 
-0.4318317 0.25039 0.1890653 
0.5356235 -0.0525107 -0.3926742 
0.5498687 -0.00426113 -0.390115 
0.4191565 0.2266429 0.360989 
0.1590974 0.3653068 -0.07613244 
-0.2570503 0.2893141 0.3402275 
-0.3881364 0.3389663 0.06666443 
-0.3318998 0.325196 -0.3087109 
-0.4079013 0.3224641 -0.3394297 
0.1402742 0.4248054 -0.3017015 
0.2270263 0.3819813 -0.2480011 
-0.4513995 0.2613484 0.1932313 
-0.2336749 0.3957613 -0.2838687 
-0.1090768 0.3116757 -0.01637389 
-0.2316838 0.2709619 0.3335 
-0.1968265 0.3349138 -0.155783 
0.493816 0.3581359 -0.1310571 
-0.443764 0.2887317 -0.2082553 
0.104337 0.4108221 -0.2355819 
-0.2759979 0.2031388 0.4088414 
0.4572809 0.2638016 0.3125002 
0.1029787 0.2616175 0.1915667 
-0.2645618 0.2953152 0.1920799 
-0.420577 -0.1641511 -0.4137346 
0.1648786 0.3855252 -0.1176866 
0.2652224 0.3335722 -0.1395007 
0.06282219 0.3363787 0.09197551 
-0.411158 0.2973482 0.03954389 
-0.004930185 0.3491665 -0.08562119 
-0.4296974 0.1134113 -0.4315524 
-0.21741 0.4104373 -0.2575308 
0.5250751 0.3384459 -0.2123691 
0.1314106 0.3688312 -0.02192345 
0.06754388 0.2682536 0.008929968 
-0.168006 0.2962051 0.1752069 
0.5121704 -0.1840809 0.3614845 
-0.433492 0.32687 -0.001369762 
-0.358778 0.2368788 0.07789274 
0.2905024 0.3571929 0.06430259 
-0.4255074 0.2856241 -0.3796519 
-0.4628749 0.2988607 -0.2412898 
-0.4187368 0.2377707 0.2873814 
0.4333796 0.1726756 0.01833785 
0.1588726 0.2653671 -0.1047858 
-0.4333809 0.05013071 -0.4212585 
0.2441623 0.3619533 -0.1749216 
0.1381715 0.3534058 -0.03485059 
0.5373266 0.2999952 -0.4281601 
0.07073522 0.3609034 -0.2094504 
-0.07919979 0.3425245 -0.3825495 
-0.3154111 0.3732612 -0.1802277 
-0.3896557 0.2910119 0.1203292 
0.5477052 -0.2254964 -0.3849478 
-0.4333715 0.2557418 0.2477261 
-0.147111 0.301869 -0.2229341 
0.06693666 0.3058611 0.2192149 
0.101658 0.3928117 -0.3324226 
0.5321748 0.2673632 -0.1277216 
0.4343688 0.2947319 -0.1294076 
0.5340509 -0.07602639 -0.3957631 
0.5219687 0.3034192 -0.3649219 
0.02631632 0.3651454 -0.08292487 
0.2538111 0.2832628 0.1872705 
-0.3393237 0.3704051 -0.1197448 
0.2606671 0.3871974 -0.4415885 
0.005068495 0.3337094 -0.3167711 
-0.1793741 0.4076737 -0.3337753 
-0.4666458 0.336997 -0.3988264 
-0.367171 0.223263 0.3066207 
-0.03049341 0.2357657 0.3996453 
-0.1556996 0.3241758 -0.1913312 
0.1663478 0.2829408 0.3398514 
0.2827266 0.2601133 0.2415484 
0.2407159 0.3537467 -0.1693102 
0.2321892 0.2628764 0.2964406 
-0.03665046 0.3907952 -0.4234613 
-0.3885169 0.3263043 -0.3394246 
-0.3414432 0.3028603 0.2701929 
-0.189964 0.3696513 0.03389709 
-0.1863915 0.3679941 -0.08684192 
-0.3676001 0.2675911 0.06474515 
0.3774458 0.1968571 0.3907951 
-0.07876797 0.351633 -0.2002095 
-0.07211746 0.3494273 -0.1956084 
-0.4235176 0.06060662 -0.4339966 
-0.1546437 0.3268046 -0.03340652 
-0.4149434 0.3547061 -0.4651265 
-0.1319134 0.3436261 0.01429238 
-0.4244167 0.2324559 0.2125539 
0.3849415 0.3195253 -0.421382 
-0.4046422 0.3598178 -0.4881074 
-0.1423398 0.319346 0.1801409 
0.1977818 0.3468952 -0.1279471 
-0.317258 0.342777 -0.499294 
0.006051574 0.3774909 -0.06443067 
0.5113783 -0.112608 0.3429072 
0.442649 0.354391 -0.468753 
-0.2351446 0.3920932 -0.1359943 
-0.0942202 0.3618474 -0.2156805 
0.3231007 0.3996231 -0.3955377 
0.4566953 0.263932 0.2832917 
0.5855566 0.3236362 -0.4660079 
0.5187034 0.2286038 0.2090729 
0.4665914 0.2785318 0.3043821 
-0.2338098 0.4233694 -0.1987008 
-0.2368338 0.3200143 -0.07228339 
-0.3932683 0.2362641 0.2711607 
-0.2314561 0.2070154 0.4021825 
-0.1924918 0.3541323 -0.0681132 
-0.3078454 0.3441313 0.1552792 
0.05201156 0.3362916 -0.01681582 
0.5236189 -0.06569997 -0.4104418 
-0.3349572 0.2828295 0.0305973 
0.5137352 -0.1770411 0.3592723 
0.5194181 0.3279935 -0.05330698 
-0.251396 0.2141352 0.3798609 
-0.3670482 0.2430609 0.1152492 
0.509293 -0.1194757 0.3473854 
0.4796438 0.1579761 0.3492923 
0.02724355 0.421989 -0.3546152 
-0.3586091 0.3263516 0.08249266 
0.0321894 0.2975353 -0.5042804 
0.1029397 0.3825361 -0.3642692 
-0.2507103 0.2744751 0.3216269 
-0.05816495 0.3603213 -0.2151538 
-0.4314759 0.1897261 -0.4092773 
0.294751 0.2992616 -0.5106925 
0.1463977 0.3050427 -0.4116015 
0.2755243 0.3333979 -0.2712944 
0.4606115 0.1949662 -0.02385481 
0.4374421 0.2390077 0.09983513 
-0.06797644 0.300639 -0.3622166 
-0.05231728 0.3196575 0.03493573 
-0.2678902 0.3192553 -0.2101773 
-0.3151925 0.3142281 0.1426242 
-0.06662289 0.4032099 -0.3125117 
0.2360408 0.3140689 -0.1260308 
-0.2780442 0.2787506 0.3205466 
0.2705181 0.3978689 -0.3404259 
0.2287995 0.3206757 -0.2071386 
-0.06156016 0.337173 -0.02645764 
0.1607995 0.3554774 -0.1027936 
0.1979122 0.3231137 0.09879505 
0.169147 0.3397066 -0.04968449 
0.3558291 0.3545458 0.08054271 
-0.3503472 0.3305714 -0.01642815 
-0.2169274 0.3614444 -0.1351562 
0.1485936 0.3560484 -0.1825061 
0.1725355 0.3306667 0.07150383 
-0.4380232 0.3002014 -0.2445971 
0.2309819 0.3679828 -0.3269396 
-0.005171226 0.4412988 -0.2694625 
-0.2306807 0.3508182 -0.4907648 
0.2184511 0.3413185 -0.1737048 
-0.3132021 0.2930426 -0.01023822 
0.07969753 0.3654006 -0.07319562 
0.5156908 -0.1178704 0.333592 
0.08519328 0.3581274 -0.07828565 
-0.4333922 0.3146767 -0.3506404 
0.3960918 0.3479599 -0.1495485 
-0.4367621 -0.01634671 -0.4085187 
0.3352634 0.2642996 0.3038121 
-0.2662297 0.4283787 -0.2931344 
0.02105026 0.354552 -0.1897656 
0.440814 0.2899913 0.2928472 
0.1248979 0.2901655 0.06455662 
-0.3739833 0.3298343 -0.1126217 
0.1948064 0.2714366 0.009673878 
-0.1895313 0.2898002 -0.2453669 
0.05209132 0.4168294 -0.3947185 
-0.04070157 0.3867755 -0.3671645 
-0.04968581 0.3997456 -0.2815661 
0.5566584 0.2918128 -0.224329 
0.01948668 0.3181711 -0.3794767 
-0.1403501 0.3232697 -0.2805775 
-0.4234378 0.159107 -0.4537037 
0.2668108 0.3727636 -0.3713559 
0.03775002 0.3911326 -0.3376891 
0.2075605 0.376015 -0.08492415 
-0.2357625 0.3489331 -0.1181429 
0.1260118 0.3495745 -0.4457591 
0.1403711 0.3492391 0.07259323 
0.3426819 0.2987483 0.3194416 
0.3287172 0.2668436 0.1385756 
0.4786617 0.302451 0.02681213 
-0.1997642 0.2772756 -0.2644707 
-0.4576943 0.294175 -0.3671561 
-0.1046204 0.3445129 0.01656063 
-0.3635657 0.3886617 -0.1448083 
0.2943255 0.3568124 0.07913257 
0.5204474 0.2496944 0.2573956 
0.321567 0.2795779 0.2316624 
0.1536761 0.3061149 0.09700839 
0.3861462 0.3176223 -0.3320263 
0.3755549 0.3793553 -0.1246907 
0.09671762 0.2672029 0.3951881 
0.3742865 0.2836787 0.3256773 
-0.2346942 0.3671972 -0.131149 
0.3553934 0.3350538 0.07872432 
0.06805968 0.2826817 -0.1498447 
-0.2390839 0.3528932 -0.1716828 
-0.1472643 0.434517 -0.294367 
-0.4412251 0.2761843 -0.07488767 
0.1883647 0.3246971 0.07614706 
0.4285605 0.2735906 0.3546664 
-0.3578712 0.319236 0.0875385 
-0.4386772 0.2559282 0.06828631 
0.1723019 0.3727418 -0.1009695 
0.1377802 0.3392833 0.1968819 
0.2412486 0.373233 -0.05961199 
0.1638493 0.3181409 0.09414726 
-0.2454925 0.3158377 -0.4922059 
0.1048273 0.4175687 -0.3279999 
0.2949048 0.3035742 -0.3771448 
0.2114119 0.3302987 -0.1881557 
0.09226857 0.3570429 -0.1670111 
0.2489616 0.3436152 0.1197698 
0.2879895 0.1946683 0.3784907 
0.08717395 0.2864659 0.2352497 
0.4066801 0.2990965 -0.2414059 
0.3404717 0.2966831 -0.2978282 
0.0962767 0.3794331 -0.1525042 
-0.055607 0.2893786 -0.3486547 
0.1814347 0.3539944 -0.1864029 
-0.05363777 0.2733152 0.3238158 
0.02250152 0.3288129 -0.225094 
0.05725543 0.3085823 0.1888034 
0.204452 0.332157 -0.02075047 
0.5076985 -0.1145146 0.3525235 
0.1115423 0.3195178 -0.1222205 
0.02277982 0.4033644 -0.2309515 
-0.05765369 0.3183556 -0.3124978 
0.4846876 0.274981 0.2920199 
-0.2372908 0.4033188 -0.2449548 
-0.430335 0.05578547 -0.4111959 
0.1506735 0.2059313 0.3611941 
0.3780369 0.3725277 -0.2212202 
0.4144254 0.3330819 0.2863049 
-0.4462148 0.1646704 -0.4125226 
-0.4075821 0.2569217 0.2868161 
-0.3349303 0.3214547 0.01577377 
0.4581798 0.316012 -0.4407811 
0.5004384 0.2557105 0.06337253 
0.2750771 0.3321612 -0.2155224 
0.07081652 0.3476473 -0.1183722 
-0.4224188 -0.1508386 -0.4321451 
-0.2450593 0.2555397 0.1796604 
0.5299596 0.2883265 -0.3845069 
-0.4262931 0.2667361 -0.4183728 
-0.309314 0.2550899 0.3115345 
0.1521734 0.4126843 -0.127254 
-0.4418691 0.2210373 0.3235646 
-0.09821972 0.3679916 -0.4564981 
-0.1660606 0.300209 -0.1061385 
-0.4347112 0.2966727 -0.4227443 
0.5245769 0.2830386 -0.3679287 
-0.1478913 0.2756308 0.2132416 
-0.4234627 -0.06017806 -0.4273897 
-0.3960711 0.3376964 -0.2908522 
-0.2262014 0.2411997 0.3027279 
-0.1474556 0.3608628 0.02908238 
-0.2194328 0.3918099 -0.169413 
-0.3612383 0.2644256 0.1130493 
-0.23744 0.225387 0.344925 
-0.4263979 0.2479507 -0.4184469 
0.1415437 0.2825875 0.2654313 
0.2612892 0.3501254 -0.180537 
0.397113 0.3074473 -0.3429302 
-0.2580165 0.3579648 -0.2775913 
-0.1066502 0.2700205 0.3200845 
0.08771764 0.3026736 -0.04147964 
-0.378372 0.2713376 0.1769374 
0.3909078 0.332624 0.2914824 
0.2065529 0.3038751 -0.4256123 
-0.4402533 0.09942187 -0.4196407 
-0.4202246 0.2474494 0.2786921 
-0.2749031 0.3148057 -0.0005240715 
0.487618 0.2907105 -0.3633657 
0.5357578 0.2623023 0.01519137 
0.2395498 0.3644867 -0.1569625 
0.001314396 0.383838 -0.1429726 
-0.4251797 -0.1080929 -0.4038379 
-0.2546766 0.2432947 0.1858639 
0.5380226 0.2875071 -0.3817238 
-0.4226323 0.26225 -0.4137628 
-0.3094956 0.2732593 0.2962442 
0.03785482 0.3589441 0.006147669 
0.1129543 0.3736926 -0.1451259 
-0.4226342 0.2216885 0.320568 
-0.1001069 0.3669419 -0.4582254 
-0.08536792 0.2553816 0.3954187 
-0.2237558 0.3311434 0.02818645 
-0.4367125 0.2950074 -0.4351934 
0.5306486 0.2773426 -0.3927118 
-0.1614416 0.3059072 0.1798791 
-0.4479465 -0.07635268 -0.4121419 
0.1283099 0.3563669 0.08483852 
-0.3803044 0.2530834 -0.2220086 
-0.3163268 0.2383086 0.3324809 
-0.2160882 0.3991346 -0.1953161 
-0.09642456 0.2474208 -0.1211197 
-0.353384 0.2685812 0.1297822 
-0.4261861 0.2381257 -0.4226522 
0.01813061 0.2359009 0.4024167 
0.08350674 0.3007105 -0.1771273 
0.3671713 0.3569457 -0.1359899 
-0.06332692 0.3478555 -0.2647056 
0.3574609 0.3067538 -0.4051554 
0.4377221 0.2008671 0.09108265 
-0.05304399 0.2879799 0.2782947 
0.08610605 0.3004271 -0.06029193 
-0.36671 0.2741164 0.1730589 
0.02716426 0.4220012 -0.3544368 
-0.3558674 0.3122469 0.08188344 
0.0320462 0.2972575 -0.5043545 
0.1029957 0.3825162 -0.3643614 
-0.2495383 0.2733125 0.3221574 
-0.05825399 0.3603042 -0.2152003 
0.297906 0.2993401 -0.5109551 
0.1334364 0.3099383 -0.3988492 
0.2770152 0.347729 -0.2393773 
0.460774 0.1949537 -0.02209296 
0.4323247 0.2425233 0.09988336 
-0.07132503 0.2996319 -0.3572481 
-0.06836733 0.3137838 0.03187879 
-0.2653241 0.3206066 -0.200475 
-0.3151727 0.3135991 0.1430984 
-0.0662385 0.4026743 -0.3126155 
-0.2772181 0.2815132 0.3217553 
0.2615063 0.400023 -0.335657 
0.2396778 0.3347379 -0.1940602 
-0.05094387 0.3334928 -0.03489108 
0.1664419 0.3567649 -0.09932141 
0.198183 0.3231744 0.09673742 
0.169202 0.3396626 -0.04966599 
0.3558198 0.3545163 0.080557 
-0.3545566 0.3328778 -0.01438798 
-0.2169381 0.3614475 -0.1351376 
0.148261 0.3547327 -0.181608 
0.176986 0.3351926 0.08996179 
-0.444975 0.3039582 -0.2465151 
0.2318325 0.3674443 -0.3274611 
0.1968232 0.3056714 -0.2179164 
-0.002741036 0.44083 -0.2705069 
-0.2257223 0.3484123 -0.490837 
0.2195286 0.3379571 -0.1721493 
-0.3141325 0.2975369 -0.01885579 
0.08000176 0.3624116 -0.07513167 
0.5159765 -0.0879887 0.3398102 
0.09255663 0.3583966 -0.08172732 
-0.4259514 0.3091365 -0.3480486 
0.3924526 0.3405628 -0.1396223 
-0.4327132 -0.02533425 -0.4153456 
0.3357163 0.2641229 0.3042149 
-0.257898 0.4250193 -0.2938434 
0.01622887 0.3622282 -0.2351028 
0.4409398 0.2896734 0.2936627 
0.1246362 0.288785 0.06560823 
-0.3713834 0.3247771 -0.1152511 
0.1940773 0.2765789 0.01689351 
-0.1925571 0.2910276 -0.2443752 
0.04969507 0.4151325 -0.3881968 
-0.04102172 0.3868364 -0.3676106 
-0.05481919 0.39461 -0.2734689 
0.5565005 0.2970551 -0.2482096 
0.006707624 0.3219238 -0.3700716 
-0.1408369 0.3225802 -0.2809724 
-0.4246539 0.1591702 -0.4524724 
0.2670525 0.372924 -0.3711946 
0.03727826 0.3884482 -0.3378736 
0.1983987 0.3815357 -0.08719878 
-0.2355525 0.3488163 -0.1181154 
0.126121 0.3495467 -0.4455459 
0.1411053 0.3474535 0.07660074 
0.3441263 0.301251 0.3220071 
0.3213142 0.2680859 0.1389178 
0.4747032 0.3021768 0.03005893 
-0.1993792 0.2772645 -0.2622492 
-0.4571795 0.2938188 -0.3683991 
-0.1076896 0.3233595 0.0405997 
-0.3395471 0.3669206 -0.07176574 
0.2901069 0.3616637 0.07861573 
0.5219824 0.2488004 0.2583856 
0.3121685 0.2950668 0.2314077 
0.1720039 0.3049535 0.07204182 
0.3780945 0.3158109 -0.3316757 
0.3544037 0.4067099 -0.1444065 
0.09040795 0.2673396 0.401589 
0.3752522 0.286446 0.3244848 
-0.2372556 0.3680163 -0.1315349 
0.3554474 0.3352546 0.07878453 
0.06645284 0.2844334 -0.1522256 
-0.2390618 0.3530437 -0.1715979 
-0.1497502 0.4355806 -0.2941391 
-0.4415874 0.2725704 -0.07570966 
0.1904337 0.3264642 0.07798321 
0.433192 0.2741137 0.3284899 
-0.3613093 0.3175307 0.08639267 
-0.4383172 0.2556221 0.06725562 
0.1580606 0.3699076 -0.09755391 
0.1416832 0.3394004 0.1984421 
0.2410324 0.372896 -0.06105813 
0.1523494 0.305326 0.0971945 
-0.2454717 0.3158342 -0.492217 
0.1046459 0.4175209 -0.327991 
0.2911647 0.3037372 -0.3792039 
0.2107363 0.330431 -0.1853741 
0.09965844 0.3540016 -0.1625997 
0.2497236 0.3414953 0.1195248 
0.2813472 0.1953636 0.3735204 
0.09682346 0.2893029 0.2375809 
0.3994709 0.3055046 -0.2436674 
0.3404129 0.2970397 -0.2977475 
0.08449474 0.3808005 -0.1560926 
-0.09976444 0.3266326 -0.3404061 
0.1813879 0.3531604 -0.1870913 
-0.03686932 0.2989126 0.332518 
0.02388793 0.3300938 -0.226613 
0.06120915 0.3099269 0.1904212 
0.2043428 0.3325285 -0.02190471 
0.5082237 -0.1139214 0.352642 
0.108474 0.3241453 -0.1113913 
0.0223545 0.4030705 -0.2469878 
-0.05378221 0.3191505 -0.3178191 
0.4834525 0.2752352 0.2924351 
-0.2361232 0.4026702 -0.2434321 
-0.4309397 0.06031737 -0.411597 
0.1480969 0.2037374 0.3705424 
0.3785795 0.3729097 -0.2210931 
0.4142044 0.3330846 0.2869185 
-0.4438816 0.1820116 -0.4122932 
-0.4100217 0.251511 0.2921998 
-0.2735606 0.3189027 0.02284736 
0.4687772 0.3158548 -0.3861651 
0.5010753 0.2557436 0.06340999 
0.2694135 0.3353064 -0.201361 
0.07244465 0.3479036 -0.1192266 
-0.4229702 -0.1488092 -0.4310198 
-0.2420316 0.2680481 0.1716738 
0.5310085 0.2876286 -0.3835441 
-0.4239307 0.2639238 -0.4150022 
-0.3064695 0.2512655 0.3018961 
0.1283005 0.4216871 -0.1128342 
-0.4471217 0.2211528 0.3243466 
-0.0982684 0.3678132 -0.4564105 
-0.1649475 0.2838655 -0.07867169 
-0.4357026 0.2966711 -0.4209967 
0.5282757 0.2749261 -0.3543057 
-0.1518314 0.2725129 0.2124387 
-0.429011 -0.077062 -0.4213322 
-0.3954875 0.3460984 -0.3195515 
-0.4241871 -0.1990656 -0.4273089 
-0.2273039 0.2450161 0.2980452 
-0.1644481 0.3727334 0.03068338 
-0.2176322 0.3899571 -0.1626272 
-0.3606954 0.2645352 0.113537 
-0.2454284 0.2217394 0.3540829 
-0.4273634 0.2445544 -0.4180351 
-0.03814802 0.2686752 0.4039865 
0.1408519 0.2825802 0.2659421 
0.1047936 0.2989908 -0.1490027 
0.2622978 0.350437 -0.1797631 
0.3982895 0.308856 -0.3412395 
-0.2574375 0.3581725 -0.2775672 
-0.1067829 0.2702608 0.3200581 
0.08832127 0.3045039 -0.04419093 
-0.376904 0.2713904 0.1775105 
0.3968507 0.3325692 0.2911031 
0.2097509 0.3044449 -0.4232463 
-0.4356051 0.1150406 -0.4147687 
-0.4280583 0.2430106 0.2823262 
-0.2748486 0.3139165 0.0005501533 
0.4873016 0.2903505 -0.3631482 
0.5407194 0.2574915 0.02980331 
0.2396518 0.3667281 -0.1621171 
0.001519889 0.3794549 -0.1450927 
-0.4230976 -0.1071555 -0.4053935 
-0.2377292 0.2727062 0.1876182 
0.5387698 0.2867857 -0.3818834 
-0.4208063 0.2640909 -0.4133382 
-0.3069739 0.2626437 0.294584 
0.02784537 0.3525404 0.006655126 
0.1064272 0.3778149 -0.1449983 
-0.4236343 0.2198326 0.3305136 
-0.09903014 0.3676676 -0.4583246 
-0.09087543 0.2576967 0.4072098 
-0.2242409 0.3301907 0.03119661 
-0.4361838 0.2931379 -0.432977 
0.5311565 0.2774714 -0.3934159 
-0.1626517 0.3061823 0.1800899 
-0.4211344 -0.07250282 -0.4179808 
0.1266851 0.3551032 0.08481119 
-0.3881854 0.2589297 -0.2150456 
-0.2898329 0.2696467 0.3246506 
-0.2213501 0.3943316 -0.1533473 
-0.05490009 0.3006622 -0.08097831 
-0.3536357 0.2688365 0.1330528 
-0.1057358 0.2623712 0.3809485 
-0.4218535 0.2804454 -0.4214409 
0.08530565 0.299945 -0.1787016 
0.3494017 0.3652065 -0.1737844 
-0.06293252 0.3482789 -0.2646782 
0.354196 0.3144946 -0.3698284 
0.4357015 0.1988868 0.09525342 
-0.05301146 0.2874317 0.2776411 
0.09287291 0.3161621 -0.07022753 
-0.3668808 0.2743565 0.1747258 
0.1377479 0.3799693 -0.2091334 
-0.4197952 0.2298114 0.4005354 
-0.1156437 0.3864039 -0.270364 
0.3589844 0.3498354 -0.3327109 
-0.2086368 0.3374391 0.01889483 
0.2914381 0.2943618 0.2389181 
0.4148517 0.3012216 0.2523774 
0.4097143 0.296539 0.2461077 
-0.1445813 0.2619146 0.3961644 
0.08757714 0.319595 0.03517323 
0.3104932 0.3885885 -0.01367433 
0.0227393 0.3496393 -0.3762465 
-0.1996532 0.3366214 0.1466201 
0.1294488 0.3103923 0.05369713 
0.1867991 0.3569488 -0.1551868 
0.2177355 0.2847098 0.3031128 
-0.3067072 0.3552757 0.03678104 
0.3366706 0.3611028 -0.07104117 
0.09333009 0.3747953 -0.2000147 
-0.1023026 0.319022 -0.01663022 
-0.4300296 -0.06541119 -0.4092426 
-0.06653444 0.240268 0.3954024 
-0.1041831 0.4337467 -0.4015869 
0.3405668 0.2279969 0.3728236 
-0.03102131 0.327372 0.1730019 
0.03858627 0.3268475 -0.02255754 
-0.2507173 0.3398848 0.08014391 
0.3794455 0.3897551 -0.1520819 
0.2815004 0.3104201 0.1925938 
-0.1115158 0.3653475 -0.2699692 
-0.277605 0.3887087 -0.1590458 
-0.3498632 0.3464581 -0.4151849 
0.2163893 0.3673249 -0.1359371 
0.06664035 0.3606235 -0.2676449 
0.2950071 0.2512823 0.3565151 
0.4373563 0.2692321 -0.01082635 
-0.3683256 0.2525461 0.2617239 
-0.3569911 0.3159466 -0.08842565 
0.2623453 0.3976195 -0.126451 
0.1756341 0.3678864 -0.05562171 
0.3524774 0.3563822 0.04070412 
-0.4172344 0.2916993 -0.4010848 
0.1980851 0.2864652 0.105082 
0.4973797 0.2018996 0.2914636 
0.4643649 0.2198476 0.3482428 
0.1004929 0.3123284 0.0636204 
-0.1680875 0.3392209 -0.05598739 
-0.2917904 0.2828199 0.1849846 
-0.04930502 0.4165896 -0.2545495 
0.292068 0.4381302 -0.234694 
0.3839785 0.3336414 -0.507268 
0.1819434 0.3552236 -0.1142213 
-0.3093882 0.2437049 0.05162928 
-0.4271819 0.2084014 0.3051477 
0.3285428 0.3331568 0.08448336 
-0.04715048 0.3350593 -0.05354908 
-0.1103787 0.2409988 0.2425544 
0.3355455 0.2630422 0.340339 
-0.07909853 0.2938255 -0.03471323 
-0.4266633 0.2490247 0.1796553 
0.492003 0.2122312 0.3634684 
-0.367111 0.3080265 0.07561957 
-0.05290951 0.3438659 -0.1300154 
-0.1513605 0.3299917 0.009878841 
0.5341691 0.1716433 -0.398946 
0.0213578 0.2647294 0.08273999 
-0.4272392 0.0230029 -0.4355786 
0.170589 0.3439635 0.01406739 
0.4789432 0.2168663 0.3744975 
-0.04529109 0.3084734 0.3385453 
0.04126598 0.2749788 0.3464108 
-0.4425643 0.3364252 -0.2139272 
0.087777 0.2742088 0.3701033 
0.1746122 0.336529 0.1673652 
-0.06725582 0.2696192 0.2351868 
-0.1911984 0.3708522 -0.1768418 
0.491295 0.2584173 0.1693948 
-0.3759135 0.2830675 0.1567492 
-0.4400422 0.2667269 0.05743089 
-0.07734774 0.3031775 -0.09342223 
-0.3501775 0.3005226 0.07515503 
-0.2027382 0.342995 -0.04866904 
-0.2254662 0.296734 0.194774 
0.174791 0.386147 -0.2419941 
0.1420451 0.351498 -0.05308696 
-0.1793279 0.3421901 -0.1648815 
0.3504528 0.3589043 -0.1522544 
0.02670123 0.2398567 0.356203 
0.4166415 0.269309 -0.01580733 
-0.3614266 0.3297191 -0.24785 
-0.1797405 0.3654293 -0.04124573 
0.3338356 0.2736253 0.3115143 
0.3983915 0.3819332 -0.1696997 
-0.3455128 0.2351713 -0.0006573159 
-0.4278209 0.2123926 0.4085243 
0.4510351 0.2280006 -0.0835794 
0.3104479 0.337267 0.003355887 
-0.06048377 0.267018 -0.03738993 
-0.3021664 0.3215224 0.3122873 
-0.1357296 0.3736596 -0.2869336 
-0.3536751 0.3534184 -0.04895002 
0.1357086 0.3818079 -0.2588805 
-0.18109 0.2894471 0.2370163 
-0.1509031 0.2352993 0.14683 
-0.4090161 0.2878806 0.1721579 
0.0885403 0.3022288 0.2019198 
-0.03783533 0.3457811 -0.3323561 
0.1713223 0.3338596 -0.03114226 
0.0721909 0.3610811 -0.06552136 
-0.3840585 0.2452346 0.410924 
0.2868541 0.3035262 0.2444507 
-0.1616548 0.2447006 0.3019705 
0.1156827 0.3841251 -0.3119829 
-0.04173627 0.3043914 0.3256878 
-0.0193008 0.2971598 0.2716263 
-0.1078013 0.2948201 -0.3980334 
0.3919895 0.4028642 -0.3451042 
0.1871098 0.3434705 0.01058012 
0.5051855 0.1245338 0.3529641 
0.2259184 0.3909948 -0.1425635 
0.1650875 0.3334501 -0.148545 
-0.3102197 0.3534696 -0.05079845 
0.4768637 0.3123703 -0.1652185 
-0.4300775 -0.0387647 -0.4086715 
0.4813314 0.2637385 -0.1277009 
0.2497206 0.3403302 -0.3944015 
-0.08933858 0.3284521 -0.04539556 
-0.1138512 0.3178236 -0.01156004 
0.4567157 0.2626154 0.1669813 
0.1767983 0.3826101 -0.2103671 
-0.4046203 0.321488 -0.1535575 
0.3673784 0.3104387 -0.465084 
0.4953611 0.2155323 0.3089779 
0.3121894 0.3004903 0.07737983 
-0.2843147 0.3168672 0.09865351 
0.4666192 0.3093887 -0.05348075 
0.05941763 0.3724631 -0.1981608 
0.09177367 0.3312627 0.06503771 
0.3815011 0.3317896 -0.1728601 
0.3290908 0.2986183 -0.2457886 
0.1681572 0.3087421 -0.01402504 
-0.3256286 0.2950812 0.03298667 
0.431941 0.309962 0.1486141 
-0.4708634 0.2690416 -0.001391946 
-0.0854186 0.2781421 0.2422642 
0.4005994 0.2363197 0.3148057 
-0.06048198 0.3150991 -0.2817971 
-0.4196084 0.3067472 0.06611553 
-0.05364197 0.3541189 -0.1371465 
0.3314906 0.4009313 0.1101555 
0.5497329 0.02477124 -0.3793629 
-0.167283 0.3315019 0.1275668 
0.4425172 0.330043 -0.09573899 
0.1419021 0.3161027 0.01848248 
0.08403437 0.3361526 0.07363743 
0.1647093 0.2935117 0.09554918 
-0.09799995 0.3309395 -0.02965758 
-0.1984253 0.3243527 0.0323679 
-0.2368972 0.347801 0.04342492 
0.2635506 0.2853723 0.2557778 
-0.1501606 0.3584664 -0.1528688 
0.2079585 0.346775 -0.05916455 
-0.2109146 0.2395576 -0.01251133 
0.1539417 0.2117066 0.3928445 
-0.3838646 0.3339093 -0.3042774 
0.2517507 0.3405181 -0.08400551 
-0.0006501903 0.3651828 -0.2936914 
-0.3472868 0.3261792 0.1121922 
0.4385124 0.2463839 0.2073607 
0.2414563 0.34104 -0.0008269774 
-0.177283 0.2709836 0.3020877 
-0.363834 0.2646819 0.009045892 
0.4358105 0.1829799 -0.06513183 
0.4951734 0.2700829 -0.1099291 
-0.2797772 0.3162782 0.04676111 
0.385247 0.2424184 0.3570653 
0.5422516 -0.04189201 -0.4204591 
0.4542809 0.3188488 -0.06961177 
0.424135 0.234791 0.3082819 
-0.08331232 0.3173492 0.005092946 
-0.2438314 0.4017669 -0.1473724 
-0.03209195 0.3412928 -0.2167509 
-0.4203963 0.2025513 -0.4240359 
0.1024264 0.2495555 0.3395835 
0.1572249 0.3853697 -0.2114905 
-0.4422655 0.2592695 0.1203634 
0.4076902 0.2284482 0.1894704 
0.1349446 0.3005713 0.2686829 
0.1956496 0.2715819 0.1455989 
0.5101866 0.2157437 0.2606939 
-0.3928731 0.2613523 0.08330575 
-0.1796245 0.3892466 -0.08567566 
0.4885322 0.327111 -0.3570287 
-0.4331684 0.2238852 0.3832157 
-0.4261042 0.2104573 0.240198 
-0.3910385 0.2408266 -0.1525355 
0.172003 0.3204756 -0.02370563 
-0.209394 0.3423212 0.1394446 
-0.3932786 0.2992194 -0.3762483 
-0.3245286 0.2935663 0.340481 
0.1597924 0.3194804 0.06169359 
0.1315202 0.3175072 0.05155174 
-0.4473374 0.2200086 0.3448906 
0.4334123 0.2550407 0.2115943 
-0.1804808 0.3639972 -0.2291857 
0.1433103 0.3036351 0.06811149 
-0.1891322 0.336548 -0.1150391 
-0.08602125 0.2799849 0.2525608 
0.4312755 0.3173063 -0.07681768 
-0.2779592 0.2752579 0.3201198 
0.2305794 0.2262297 0.3664599 
-0.4054011 0.2574746 0.1659044 
0.2724631 0.30099 -0.3767849 
0.1275605 0.3682497 -0.09905623 
-0.04898217 0.4158226 -0.2642893 
-0.3820148 0.2071482 0.3937418 
0.1726012 0.3693531 -0.1559495 
-0.04425089 0.3623334 -0.244767 
-0.3256326 0.3049773 0.1274117 
-0.07217833 0.2848146 0.02186583 
-0.1571811 0.3394333 0.01691087 
0.190915 0.3557579 -0.136965 
0.09027965 0.3133229 0.04433707 
-0.4274669 0.2978443 -0.370274 
0.1903889 0.3945406 -0.1928319 
0.3412822 0.3027544 -0.1469049 
0.2015683 0.362249 0.01339165 
0.0373158 0.3398491 -0.3634726 
-0.101215 0.3974993 -0.4501822 
-0.2966038 0.2905375 0.1836095 
0.1031857 0.2174552 0.390592 
0.3898424 0.2437207 0.3411984 
-0.183388 0.3429764 0.1481848 
0.1249976 0.3111441 0.02868008 
-0.102095 0.3680143 -0.2909898 
0.01467766 0.4348949 -0.3023413 
-0.3805602 0.3212626 0.06561941 
0.1243112 0.3811618 -0.07959466 
-0.08844166 0.4148354 -0.3108008 
0.09509113 0.2876841 0.3088847 
0.4852394 0.3497061 -0.2107006 
0.04523455 0.4016331 -0.2041165 
0.1158746 0.3392093 0.00775862 
0.3604021 0.3630578 0.02981766 
-0.06870228 0.3179642 0.009047573 
0.06419922 0.3534338 -0.1751258 
-0.1853938 0.3693621 -0.1492687 
-0.09388506 0.3920501 -0.2203859 
-0.131821 0.3059793 -0.0380941 
0.5392376 0.175249 -0.3988912 
0.5394933 0.234294 0.07146741 
0.2466718 0.359475 -0.08700737 
-0.1745625 0.3692031 -0.01705257 
-0.3306366 0.3110726 0.1409148 
0.1547946 0.3596148 -0.05544635 
0.4216366 0.349128 -0.2145335 
0.4376101 0.325471 -0.1020032 
-0.4252998 0.2242718 0.2746263 
0.3053443 0.3053204 0.1654323 
-0.316537 0.3003614 0.136543 
0.2167409 0.3505203 -0.1801979 
0.08206759 0.3408827 0.2840926 
-0.4726392 0.2987369 -0.3683101 
-0.1870354 0.3488139 0.1539565 
0.2154776 0.3626823 -0.1177775 
0.340071 0.271601 -0.1161079 
-0.2457466 0.3766249 -0.2792608 
-0.1150427 0.4073551 -0.3055079 
0.2656632 0.2804762 0.2564856 
0.3731841 0.3045792 0.0945961 
0.2157247 0.3251624 -0.1464227 
0.1257168 0.3029871 0.2471404 
-0.1113951 0.2733779 0.2279634 
-0.09928945 0.4106194 -0.3154455 
-0.1915047 0.3689916 0.07646707 
-0.3785296 0.3163826 -0.04000547 
-0.2064936 0.3164203 -0.335544 
-0.007994805 0.4234392 -0.4082704 
0.1084355 0.3823192 -0.2388286 
-0.06614537 0.2801053 -0.09247249 
-0.2672743 0.3152012 -0.237354 
-0.1741033 0.3282781 -0.01985676 
0.2872779 0.4102507 -0.1905251 
-0.4399365 -0.06498298 -0.4030764 
-0.1956113 0.3433753 -0.1267661 
0.05919805 0.3005572 0.09047957 
-0.4079437 0.3130145 -0.00725491 
0.4365925 0.2425719 0.1166383 
0.4869593 0.3518137 -0.2302755 
-0.006230457 0.2385078 0.3447969 
0.3799452 0.3716326 -0.09616075 
-0.3991674 0.2943517 0.04756881 
0.0007261095 0.3124936 0.2412478 
0.4888134 0.354674 -0.03072016 
0.1235312 0.3411613 0.02979047 
-0.2104769 0.3687437 -0.007103551 
-0.08441453 0.3749833 -0.3105449 
0.1644542 0.3209962 -0.3639628 
0.446646 0.2342536 0.2051784 
-0.009210899 0.2626885 -0.4223047 
-0.4360892 0.2166182 0.2831666 
-0.08838562 0.2717336 0.2521884 
-0.1645481 0.3785414 -0.2789787 
0.2425735 0.3533221 0.004859695 
-0.1458754 0.35115 0.01166397 
-0.1944739 0.3667906 -0.1741181 
0.1987465 0.2974413 0.09905979 
0.4698374 0.3187434 0.08225479 
-0.4792453 0.2355619 0.2140716 
-0.2332856 0.2771048 0.2068152 
0.3266336 0.2562669 0.3406072 
-0.3103334 0.3634453 -0.1815067 
0.1474275 0.3233619 0.06646051 
-0.1668341 0.3862862 -0.3417277 
-0.3442292 0.21046 -0.01332799 
-0.1064217 0.3672238 -0.2715016 
-0.2676106 0.3615238 -0.2435429 
0.02163307 0.2847267 0.05478352 
0.1522031 0.3559837 -0.06592124 
-0.2058112 0.3048743 -0.09625404 
0.2545129 0.3677234 -0.05897433 
0.4947615 -0.2558359 0.36079 
-0.06043178 0.3089067 -0.01029541 
0.4709311 0.2096918 0.3264627 
0.3407364 0.2460481 0.1641767 
0.3044537 0.3542908 -0.178594 
0.4692588 0.2213701 0.3415994 
-0.2813122 0.3195756 0.05240693 
-0.01134001 0.348201 -0.04856246 
0.1037042 0.377425 -0.1910332 
-0.106955 0.3398592 -0.0627149 
-0.07846174 0.3352155 -0.04649374 
-0.4174964 0.3407702 -0.3126031 
-0.4129036 0.2903558 -0.3231915 
-0.1765382 0.2809193 0.3298703 
-0.4502209 0.2497092 -0.1192002 
-0.1983525 0.3354866 -0.114952 
-0.4104845 0.2680612 -0.2602307 
0.3712683 0.3558005 -0.08013576 
0.03626432 0.3707113 -0.1608357 
0.3037127 0.3299756 -0.05585401 
0.08441644 0.4003263 -0.3563058 
-0.170123 0.2922602 0.1334558 
0.439481 0.2514306 0.198953 
0.3057892 0.3580506 -0.3163341 
0.5024864 0.3441088 -0.3087316 
0.3417998 0.25233 0.330294 
-0.1321784 0.2795115 0.319431 
0.5634392 0.2419948 -0.03363094 
0.1272765 0.3091866 0.2459251 
0.1300132 0.3946939 -0.2080805 
-0.09831696 0.2840207 -0.05660392 
-0.1785337 0.3513005 -0.1519223 
-0.1089351 0.3764499 -0.2812882 
-0.04614333 0.3659278 -0.0768584 
-0.087345 0.3572778 -0.3030969 
-0.3356889 0.3397442 -0.02723335 
-0.3269489 0.3166532 0.05980609 
0.3180723 0.3024006 0.1690332 
-0.06035028 0.3336944 -0.389613 
0.03754772 0.3416046 -0.08302481 
0.1723455 0.3551498 -0.09240837 
0.4238606 0.2324165 0.2035742 
0.07111173 0.3073944 -0.2068925 
0.08957689 0.2739385 0.3256767 
0.2295334 0.3235958 0.009185033 
-0.4240056 -0.05738635 -0.4128735 
0.4932164 -0.257162 0.368465 
0.4584475 0.3674528 -0.02451325 
-0.1012849 0.389606 -0.2712624 
-0.3579026 0.2365597 0.3874261 
-0.3130776 0.2432457 0.05811536 
-0.0831604 0.348337 -0.2184661 
-0.3337878 0.2746584 0.06863256 
-0.1960272 0.3612837 -0.01151984 
0.5577355 0.2490867 -0.03615863 
-0.1566123 0.34971 -0.2205196 
0.1067541 0.2525396 0.3476727 
-0.2444174 0.2900753 0.1633143 
0.05585363 0.2145743 0.3953588 
0.4961071 0.2552983 0.1811472 
0.17945 0.3717614 -0.2010485 
-0.2029848 0.3745648 -0.2153069 
0.05380403 0.4005754 -0.3631245 
0.3361187 0.3509099 -0.0150389 
-0.06351329 0.3548062 -0.1608071 
-0.1805002 0.3656789 -0.01798134 
0.2901115 0.3102491 0.04680821 
-0.3622779 0.3309566 -0.1546728 
-0.2010055 0.365784 -0.2040306 
-0.003935105 0.3443914 -0.1293013 
-0.05704812 0.2314822 0.3688455 
-0.01534074 0.2679659 0.04199973 
-0.07188883 0.3437274 0.05506223 
-0.4239934 -0.06648664 -0.429951 
0.5020092 0.242883 0.2124307 
0.1744598 0.356132 -0.1535739 
-0.05304346 0.3394986 -0.1477342 
0.1414753 0.3447873 -0.120469 
0.1142307 0.3484032 -0.5284789 
0.3561829 0.212852 0.3852668 
0.08390615 0.3899814 -0.32741 
-0.3733259 0.3164649 -0.2112719 
0.5099012 -0.2601951 0.3486321 
-0.08680488 0.2705082 0.2274076 
0.3625672 0.2435872 0.3570611 
0.1498759 0.3062645 -0.3535696 
0.1722788 0.3217564 0.002705745 
-0.233425 0.3835109 -0.2511451 
0.2866385 0.3263074 0.05020574 
0.5181167 0.06346471 0.3468558 
-0.1824163 0.3403805 -0.155958 
0.1822329 0.3701547 -0.2108033 
0.01220837 0.3457866 0.02343851 
-0.2579964 0.3631667 -0.1160025 
0.05369024 0.3653709 -0.08075665 
0.4582442 0.3053763 0.06839976 
-0.2297663 0.3541732 -0.4762265 
0.2202134 0.3610148 -0.1529715 
0.0234764 0.3413318 -0.1545862 
0.2530932 0.3398307 -0.1458984 
0.4600394 0.3339898 0.03629515 
0.06194759 0.3248312 0.2622074 
0.5254521 0.2589922 -0.05535889 
0.0005590378 0.2800607 0.05219786 
0.5231614 0.2970063 -0.3247649 
0.110224 0.3268137 0.0008459902 
-0.2263713 0.3439912 -0.2483632 
-0.04537525 0.3348658 0.1657174 
0.1144155 0.3917368 -0.1479089 
0.2128707 0.3220792 -0.3110343 
0.1649507 0.3274565 0.2467182 
-0.1488333 0.4001416 -0.2992113 
0.1996706 0.3174179 0.004792276 
-0.179358 0.3553978 -0.04773906 
0.1875645 0.3322777 -0.0179966 
-0.1790974 0.2572603 0.3254633 
-0.3699883 0.3016802 0.04996414 
-0.2626831 0.346059 -0.1444168 
-0.1826034 0.2893184 -0.2796222 
-0.3446658 0.1865219 0.003508879 
-0.4248753 0.2213629 0.3233696 
0.1761341 0.3061511 -0.3652869 
-0.2218708 0.3537826 -0.1317566 
0.2523027 0.3372169 -0.1553961 
-0.4119748 -0.08513499 -0.4140267 
-0.1305194 0.3445691 0.01144729 
-0.2034692 0.3847722 -0.3154021 
0.4951022 -0.2115486 0.3526566 
-0.2375268 0.3961646 -0.1291323 
0.06424098 0.2879259 0.2235243 
0.3138787 0.3073515 -0.5084938 
-0.2891599 0.3377328 0.05236718 
-0.4326402 -0.09097009 -0.4065302 
0.04072158 0.3631606 -0.2027667 
0.1928202 0.3460717 -0.0811978 
-0.08277895 0.3631926 -0.158152 
0.2645571 0.301226 -0.2274144 
-0.4357292 0.3527069 -0.5194606 
0.4922904 0.2436631 -0.1615605 
-0.2833363 0.332891 -0.1510215 
0.2117559 0.3546427 0.03055445 
0.5283762 0.3162394 -0.4292959 
0.3978615 0.3248824 -0.1806216 
-0.3548806 0.2821177 0.1622838 
-0.09997841 0.3533133 -0.1658495 
-0.2257221 0.346412 0.04654507 
-0.2817396 0.3161425 -0.2353431 
0.4591073 0.2761633 0.057094 
0.1084063 0.3375688 0.07358188 
-0.1984435 0.390707 -0.01286125 
-0.1982979 0.3906443 -0.322313 
-0.359867 0.3506871 -0.2079226 
-0.3141021 0.2957135 0.3375037 
-0.2318585 0.3828484 -0.1420125 
-0.2812472 0.3397634 0.05033541 
0.2745441 0.3500371 -0.4803276 
-0.419562 0.01030406 -0.424095 
-0.1576581 0.2917967 -0.2914463 
0.5367841 0.2553257 -0.06550682 
-0.3612201 0.3065027 -0.1323974 
-0.4212436 0.2282914 0.007566492 
0.2538789 0.3545922 -0.1899935 
0.4403785 0.3164976 -0.08170696 
-0.05967361 0.3204291 -0.003115204 
0.05053245 0.3215665 -0.02459807 
0.4979404 0.2162289 -0.1648495 
0.5306652 0.1842652 0.2178146 
0.04681535 0.3366701 -0.05845568 
0.36357 0.2101191 0.3871294 
-0.1089033 0.3562288 -0.2363084 
-0.4080872 0.2587736 -0.1119075 
-0.3389473 0.2483362 0.1065357 
0.3260754 0.3147278 -0.2842474 
0.1088132 0.2890964 0.2837977 
-0.1909236 0.3674695 -0.1621561 
0.4875942 0.2906078 0.06270181 
0.05467737 0.3769264 -0.07073747 
-0.337324 0.3172362 -0.09709052 
-0.4208421 0.2527054 -0.2361649 
-0.2621748 0.3127154 -0.2296288 
0.1058385 0.3121697 0.2364242 
0.3148799 0.3627447 -0.09871015 
0.3153821 0.3066766 0.1309388 
-0.4183889 0.2406935 0.2386439 
0.3359266 0.2738052 0.3045743 
0.1822859 0.2694901 0.4294939 
0.3593645 0.3284206 -0.3273826 
0.5351671 0.2362686 0.1362208 
-0.1887257 0.3386001 0.02730486 
-0.3802803 0.3511198 -0.276575 
0.3276857 0.3183844 0.1483373 
0.2567874 0.364844 -0.09456303 
-0.1463716 0.3434443 0.01826488 
0.13672 0.3933832 -0.2473853 
0.2208968 0.3221709 0.07352515 
0.432525 0.3878743 -0.06979059 
-0.2685803 0.3253604 -0.1605481 
0.1135724 0.3466631 -0.1627905 
0.4480112 0.3400412 -0.0005078889 
0.322329 0.3023504 -0.1161791 
-0.24849 0.3930515 -0.1380457 
-0.1062046 0.3114905 -0.01250918 
0.07655501 0.3032617 0.257225 
-0.2024992 0.3353495 -0.1493831 
-0.1305036 0.3353887 0.04803804 
0.4255066 0.3000285 -0.08739499 
-0.2680607 0.3604838 -0.1203372 
-0.09899531 0.369907 -0.1618625 
0.1899915 0.3839878 -0.1908697 
-0.07781386 0.3255824 -0.4841488 
0.2089695 0.3242185 -0.02761406 
0.2353182 0.2997068 -0.2724094 
-0.1953365 0.3676352 -0.1706385 
-0.09839113 0.3403273 -0.128336 
0.08086573 0.2803671 0.2319814 
0.09993701 0.2912177 0.2937889 
-0.1827307 0.2904543 0.2326811 
-0.210385 0.2940993 0.2247989 
0.01481211 0.3092114 0.04210344 
0.4916339 0.2849549 0.2139634 
0.2050397 0.3618377 0.01133378 
-0.02961373 0.2986175 0.3117604 
-0.1928675 0.3402691 -0.07785258 
0.2546822 0.2769445 0.2915555 
-0.01470909 0.3547008 -0.1952858 
-0.1077904 0.3374443 -0.07442746 
-0.03655806 0.2624886 0.3223693 
0.4737919 0.2642606 -0.1087873 
0.02027333 0.337041 -0.2167574 
0.1246507 0.3783834 -0.2643049 
-0.4047097 0.2647097 0.1415323 
-0.08081874 0.3836287 -0.1824648 
0.08042516 0.2852814 0.3168071 
0.3535979 0.3060883 -0.1399087 
-0.2139867 0.3703322 -0.1581667 
0.1157417 0.3197665 0.00920101 
0.1869136 0.3306153 -0.008870771 
0.4923119 0.3170826 0.0320373 
0.5330061 0.06674054 -0.4167279 
0.1013914 0.2263914 0.3663138 
-0.04615307 0.3618458 -0.2350494 
0.2914506 0.3399265 -0.1102385 
-0.2123839 0.3367234 0.1512829 
0.1200141 0.2710683 0.3344987 
0.1852266 0.3169975 0.01551143 
-0.3959981 0.2240021 0.3669282 
0.2154769 0.327062 0.03176366 
-0.01016127 0.2351087 0.2451235 
-0.3989371 0.3113978 -0.2235421 
0.06304097 0.3673485 -0.1830723 
0.231104 0.2678144 0.2668746 
0.5121581 -0.2648936 0.3501963 
-0.3766795 0.314282 0.0646898 
0.2294251 0.345125 -0.1813248 
-0.1703261 0.267831 0.3289059 
0.1386317 0.3076994 0.08514926 
0.2520351 0.2434298 0.07629514 
-0.1261381 0.3020844 0.2040679 
0.1717503 0.3370116 -0.03489381 
0.4971773 -0.2566416 0.3779473 
-0.3344726 0.2655373 0.3443505 
0.180307 0.3506213 -0.09197544 
0.1561169 0.3084692 0.07452068 
-0.3451603 0.2688327 0.313619 
-0.08936667 0.3921047 -0.2706838 
0.07902341 0.3835488 -0.1976168 
0.4957653 -0.2355729 0.3490136 
0.2051241 0.355875 -0.143192 
-0.07078812 0.255329 0.3246632 
-0.3159332 0.2933295 0.179324 
-0.2913086 0.2249251 0.3167988 
0.1843073 0.3493423 -0.08259395 
0.08799466 0.298847 0.168192 
-0.1625186 0.3727078 -0.2501207 
-0.07610222 0.3692408 -0.2899973 
0.2811742 0.3666815 -0.05689248 
-0.3172148 0.2000596 0.3774549 
0.4968985 0.2236614 0.3110656 
0.3945728 0.3672384 -0.3422598 
0.2040501 0.2983968 0.3146431 
0.2544749 0.3619124 -0.3238293 
-0.1872068 0.3032058 0.1377458 
-0.09494516 0.3135509 0.02173909 
0.5158177 0.2662444 -0.02187144 
-0.09506781 0.3658516 -0.2590954 
-0.3008004 0.2726721 0.3067945 
-0.4043561 0.2153486 0.3459538 
0.3931169 0.3002487 0.08608013 
-0.3732681 0.2326764 -0.1386132 
-0.2207274 0.2608367 0.3239329 
-0.2696826 0.3152907 0.04241792 
0.5001617 -0.09720484 0.3563132 
0.468951 0.3382563 0.09554812 
-0.3157022 0.2774407 0.1798941 
0.3951754 0.3307837 -0.490132 
0.2336211 0.3728119 -0.1457627 
0.5074503 0.2290063 0.3100891 
0.1589374 0.3620807 -0.1614963 
-0.1742814 0.362936 -0.2611404 
0.31177 0.3441107 -0.2370489 
0.4161078 0.2813156 0.2776181 
-0.06132117 0.2984958 0.3216155 
0.4927167 0.257695 -0.0211391 
-0.1628691 0.363632 0.06893947 
0.1110992 0.3499385 0.09189514 
-0.3240851 0.3460478 0.035387 
0.2032606 0.3206617 -0.1367187 
0.1493107 0.3431901 -0.1488924 
0.4071591 0.2753187 0.09113011 
-0.4075348 -0.07342378 -0.4141608 
-0.04959434 0.2925754 0.3330902 
-0.07014427 0.2930052 0.3459367 
0.03404929 0.2816158 0.1638582 
0.2019299 0.314155 0.09236094 
0.04370807 0.3232067 -0.05819746 
0.2715699 0.3765282 -0.1751202 
0.3283796 0.3433262 -0.4886796 
-0.2496554 0.3646639 -0.1179964 
0.1419156 0.2943557 -0.2916878 
0.4596847 0.2723839 0.0153389 
-0.4143008 0.304989 -0.06354131 
0.2262621 0.3551824 -0.1373838 
0.2142065 0.3117781 0.1090134 
0.532771 0.2155247 0.3261445 
