ply
format ascii 1.0
comment VCGLIB generated
element vertex 1429
property float x
property float y
property float z
element face 0
property list uchar int vertex_indices
end_header
-0.1078373 0.1194125 -0.4584578 
0.1879204 -0.1658297 0.05182782 
0.08732257 -0.2918391 0.2965739 
-0.3984804 -0.1977815 0.1228248 
0.3394996 0.01578288 -0.2981405 
-0.0560273 0.02557255 -0.3211286 
0.3359395 -0.2148138 0.1224107 
0.1373769 -0.001060389 -0.2667171 
0.2675364 0.07496087 -0.3957897 
-0.4218999 -0.08853482 -0.0869949 
-0.1814792 -0.1394647 0.02719785 
0.3020251 0.07395023 0.2737031 
0.08281903 -0.2131253 0.1204818 
-0.1483323 -0.2738618 0.2275325 
-0.08913518 0.1152679 -0.435605 
0.2115227 0.09120514 -0.4276633 
-0.1163493 -0.1930285 0.09116584 
-0.2634655 -0.1002648 -0.06748661 
0.07380877 0.0162205 -0.2894627 
-0.07599859 -0.0275799 -0.2107111 
-0.1242578 -0.132097 0.04402605 
-0.4429873 -0.1404362 0.03776796 
-0.02390087 0.04877035 -0.3569657 
-0.2107634 -0.05678035 -0.1545351 
-0.3232105 -0.0601065 -0.143017 
-0.4031715 -0.1583211 0.03640988 
0.3642602 -0.2135219 0.1685848 
-0.2301987 0.00835043 -0.2861966 
0.4063595 -0.1440669 -0.002685889 
-0.2835792 -0.3145826 0.3126042 
0.02590829 -0.0250565 -0.2194333 
-0.4413882 -0.2182085 0.1509824 
-0.2885445 -0.2278657 0.154399 
-0.0068459 -0.2370087 0.1604395 
-0.1033243 -0.05642784 -0.1645352 
-0.259421 -0.3175389 0.3187582 
-0.09113991 0.1106757 -0.4565897 
0.2222618 -0.2428636 0.1956371 
-0.4581932 -0.06320058 -0.1295805 
0.09009146 0.03717894 -0.2820885 
-0.4804319 -0.04721969 -0.1385494 
-0.08966005 -0.2281348 0.1491269 
-0.1301019 -0.3476377 0.3679111 
0.09366817 -0.3191934 0.3271145 
-0.2966563 0.01908752 -0.2594868 
-0.3118942 -0.08727933 -0.07065395 
0.4705081 -0.07184086 -0.1355338 
0.4425283 -0.1904174 0.07836407 
0.06650867 0.1220144 -0.4673257 
-0.451892 -0.1955074 0.1134497 
-0.0009959774 0.1164082 -0.471262 
-0.3804949 -0.268672 0.2286965 
-0.2696574 -0.2445974 0.1825942 
-0.2585838 -0.2867543 0.2698958 
0.3436213 -0.2227105 0.1365555 
0.3059193 0.05566918 -0.3373149 
-0.0164646 0.05071793 -0.3342613 
-0.2300189 -0.114104 -0.05190469 
-0.26231 -0.1859857 0.08008044 
-0.457863 -0.1421828 0.01183025 
-0.05474584 -0.3335391 0.3379856 
0.1850608 -0.3332762 0.3562289 
0.04435822 0.005809561 -0.2272446 
0.2756507 0.02458465 -0.3149559 
0.1873011 -0.130457 -0.02744574 
0.01918405 -0.3255315 0.3477027 
0.322033 0.03030924 -0.3243932 
-0.3069927 -0.02940697 -0.1440877 
0.1463609 0.04943157 -0.3594312 
0.2875211 0.06470094 -0.3592438 
-0.1938176 -0.3264085 0.3243218 
0.4317277 -0.1428935 -0.005012569 
0.1103998 -0.269111 0.2208681 
-0.4588526 -0.1201242 -0.02870481 
-0.02810653 -0.280206 0.2418593 
0.2610272 0.0308855 -0.3067896 
0.1301906 -0.3487433 0.3668159 
-0.3180024 -0.225091 0.1569111 
-0.2851509 -0.3097863 0.3050142 
0.3463785 -0.2163381 0.1685899 
-0.04149889 -0.0232441 -0.2188046 
-0.2434963 -0.05620978 -0.1637846 
0.10452 -0.3385983 0.3553437 
0.280888 -0.3040001 0.2843575 
0.1431701 0.0465696 -0.2988859 
-0.202899 0.0293977 -0.2520389 
-0.2799566 0.05541516 -0.3442024 
-0.09559423 0.05130039 -0.3581938 
-0.1428724 -0.05273999 -0.07607687 
-0.1089341 -0.3442706 0.3550816 
-0.1979237 -0.2288524 0.2063266 
0.03221453 -0.3560357 0.3805577 
0.145654 -0.06500817 -0.1445643 
0.4512784 -0.03125493 -0.1890778 
-0.1969149 -0.2207616 0.139548 
0.2000095 0.0976362 -0.4328597 
0.1789111 -0.02691147 -0.217985 
-0.3291332 -0.1710232 0.04258786 
0.277841 -0.2163974 0.1254497 
0.2872228 -0.0293317 -0.1852586 
0.1454172 -0.3470558 0.3640239 
-0.2758598 0.05565611 -0.3480793 
0.365756 -0.0925483 -0.03836367 
0.25396 -0.1780027 0.05734641 
-0.2469179 -0.09667332 -0.07037029 
0.006711772 -0.0184956 -0.2295766 
-0.4548862 -0.161218 0.0478501 
-0.03601846 -0.07824256 -0.1259635 
0.2988081 -0.2548043 0.195601 
-0.08092295 0.004428509 -0.2450449 
0.4126489 -0.1536345 0.0477414 
0.1423604 -0.06655125 -0.1439566 
-0.2804356 -0.01279874 -0.2301952 
-0.2186303 0.07175156 -0.3736497 
-0.4900344 -0.06925633 -0.133051 
0.1591029 -0.05443428 -0.1572381 
0.3450981 0.02423618 -0.312726 
0.187275 -0.2346257 0.1690723 
-0.2780933 -0.3181332 0.3094645 
-0.1535667 -0.01568124 -0.2069359 
0.3580545 -0.2373389 0.1641281 
-0.0289231 -0.2119946 0.1267562 
-0.09978145 0.0852765 -0.4122085 
0.1356123 -0.2864062 0.2958434 
-0.2509549 -0.07828475 -0.07853276 
0.2301917 -0.2728994 0.2277783 
0.360241 0.03684559 -0.3147515 
-0.2820628 -0.1916347 0.1271064 
0.2256585 -0.1331005 -0.02364209 
0.3501367 -0.2165973 0.155364 
0.3011768 -0.05336891 0.190665 
0.1237863 -0.3456672 0.3703962 
0.1704426 -0.08712167 -0.1064049 
0.431517 -0.2134681 0.1266706 
-0.07169539 -0.3496195 0.3800185 
0.009061209 -0.353719 0.3856409 
-0.08184904 0.05222834 -0.3515442 
0.06618517 0.1135413 -0.4693508 
0.2758283 -0.01451177 -0.2289144 
-0.3483853 -0.2863578 0.2653651 
-0.4286276 -0.2382389 0.1763138 
0.07624078 -0.3059213 0.3004757 
0.1269138 0.00679832 -0.2765633 
-0.1588982 -0.03381877 -0.1920569 
0.1113588 0.07403927 -0.3911493 
0.07005634 0.01232082 -0.2738682 
0.4440087 -0.1147757 -0.03889142 
0.3407645 -0.2771707 0.2499771 
-0.2222806 -0.3293938 0.3391443 
-0.01632139 0.1157892 -0.4695283 
-0.08638518 -0.006073297 -0.2405084 
-0.2419962 -0.07551389 -0.09419365 
-0.0807264 -0.0005545042 -0.2316657 
0.1845959 -0.2758403 0.2413828 
0.1112807 -0.2134757 0.1252772 
0.4485381 -0.02413979 -0.2094034 
-0.1816861 -0.1160211 -0.02463509 
-0.2280206 -0.2739374 0.2433772 
-0.200132 -0.1871419 0.08009689 
0.2682664 -0.2859911 0.2526431 
-0.4735735 -0.08166931 -0.09667854 
-0.4895366 -0.1460532 0.03583818 
0.1893387 -0.03667003 -0.1766053 
0.3674392 -0.06422721 -0.1428794 
0.2143473 -0.3123779 0.3208793 
-0.4754927 -0.06526321 -0.1255881 
-0.1840848 -0.3307375 0.3435728 
-0.3218244 -0.2537866 0.2240624 
-0.1864292 -0.1164592 -0.05308271 
-0.4650165 -0.1908685 0.1168444 
-0.02907605 0.1270029 -0.4694452 
0.4458532 -0.02444057 -0.2018987 
-0.2407854 -0.2248725 0.205179 
-0.1038653 -0.2058693 0.1100963 
0.03558712 -0.01851727 -0.2318752 
-0.3070718 -0.1716558 0.05627961 
0.2202156 -0.2672383 0.2231891 
0.1022396 0.05980802 -0.3630281 
0.1126011 0.1086169 -0.4303553 
-0.25427 0.06409425 -0.3668976 
0.08007238 0.0254814 -0.3374024 
-0.2947384 -0.2238743 0.1770273 
-0.1393407 -0.1223144 -0.04498065 
-0.3203084 -0.04558966 -0.1682087 
-0.06720842 -0.2113613 0.1750884 
-0.1006542 0.1223914 -0.4615188 
-0.2152912 0.06051636 -0.3620039 
0.2552247 -0.1798144 0.06254581 
0.01115846 -0.3467362 0.3809379 
-0.4597018 -0.1667619 0.05356374 
0.1621993 -0.326188 0.3389156 
-0.254888 -0.1089992 -0.01311805 
-0.2978557 -0.3010994 0.2964269 
-0.305059 -0.0853392 -0.08037398 
0.2299887 -0.1639063 0.03076019 
0.1523787 0.09375 -0.4234316 
0.08314972 -0.2296407 0.1507123 
-0.05541031 0.01462636 -0.2599714 
-0.108946 -0.2523722 0.1914594 
-0.2920343 0.06618328 -0.3502877 
0.3868834 -0.04128506 -0.1507702 
-0.2921771 -0.1606928 0.0350832 
-0.08108082 -0.1120096 -0.06394105 
0.1355842 -0.272166 0.2262459 
-0.160862 -0.1843214 0.07408403 
-0.3475586 -0.285306 0.2558777 
0.2120601 -0.2732035 0.2288699 
-0.3709224 -0.006724459 -0.237825 
0.01989256 -0.2727837 0.2491358 
0.01602537 -0.3213846 0.3180266 
0.3410576 -0.2644165 0.2285211 
0.02585896 -0.1247878 -0.05199653 
0.2530527 0.07490677 -0.4055645 
-0.2981583 -0.2749698 0.2358815 
-0.1264766 0.06194275 -0.328779 
-0.2235341 -0.02855172 -0.1832922 
0.4566229 -0.04234937 -0.1668784 
0.2350461 -0.1043844 -0.06890345 
0.4495494 -0.112641 -0.04047347 
0.4339262 -0.2194946 0.1308241 
0.336876 0.01040969 -0.2768646 
-0.1795677 -0.1951812 0.093564 
-0.08623787 -0.2685478 0.2247299 
-0.1137366 -0.3513736 0.3684473 
-0.1075669 0.003254437 -0.2525041 
0.3858199 -0.07014791 -0.1372368 
-0.06284098 -0.3512924 0.3846476 
-0.2720185 -0.1048112 -0.06654786 
0.3291667 0.053151 -0.3620708 
-0.2309265 -0.2035186 0.1200682 
0.3725684 -0.274331 0.2334605 
0.4504488 -0.186567 0.07129513 
0.01415051 -0.3244252 0.3213 
0.02822247 -0.01437317 -0.2310984 
0.2765803 0.03784245 -0.3041266 
-0.1766996 0.0837017 -0.3939884 
-0.01468252 -0.0285744 -0.2065439 
0.3807465 -0.2700451 0.2247172 
-0.2784056 0.0361194 -0.3149097 
-0.2083717 -0.02080693 -0.2033852 
0.1835767 -0.1245183 -0.03404533 
-0.1938838 0.09569281 -0.4222916 
-0.4413162 -0.06132105 -0.1250118 
-0.0949669 0.1095249 -0.4444937 
0.3203224 -0.1362929 -0.01969402 
-0.1620018 -0.09921839 -0.08530883 
-0.3055591 -0.06970467 -0.04186861 
-0.3669524 -0.1172251 -0.03864978 
0.004779851 -0.02981189 -0.2090009 
0.2451909 -0.2174617 0.1716798 
0.2207682 -0.009821798 -0.2518578 
-0.2586286 -0.1936167 0.1099754 
0.1712696 -0.2207032 0.1533615 
0.02295289 -0.07779878 -0.1217874 
-0.1454909 -0.2830124 0.245293 
0.2208051 -0.2343301 0.1926915 
0.151302 -0.2948853 0.301349 
0.2141019 -0.2632467 0.1837661 
-0.4751896 -0.1551922 0.03413415 
0.2152683 0.08134696 -0.4207668 
-0.3020433 -0.2057122 0.1162352 
-0.2056122 0.008048268 -0.2677569 
0.2901668 -0.1988954 0.1482459 
0.1285653 -0.04818128 -0.1739968 
-0.06681791 -0.1100687 -0.06736747 
-0.1820196 -0.02372791 0.3462448 
0.1137197 -0.03860739 -0.164025 
-0.3429257 -0.2601584 0.2117441 
0.2028704 -0.2375343 0.1925652 
0.4099248 -0.04536179 -0.18259 
0.2785154 -0.1378642 -0.0144989 
0.1815685 0.07613172 -0.3943983 
0.006792852 -0.3378884 0.364683 
0.1960553 0.09774975 -0.4344861 
0.1445938 -0.03857676 -0.1958128 
0.07318196 -0.294102 0.2836246 
-0.1559471 -0.01957555 0.3517063 
-0.169315 0.1120278 -0.4419585 
0.1216356 0.1108351 -0.4603912 
0.2093821 -0.2313098 0.1804389 
0.4598031 -0.1829163 0.07511523 
-0.1553728 -0.06919972 0.3229682 
-0.3607089 -0.1398542 0.03778372 
0.253069 -0.2990322 0.2844718 
0.3027301 -0.04203328 0.2076284 
-0.1644364 0.1046972 -0.4047193 
0.07408857 0.0007625641 -0.2684992 
0.3499522 -0.01504372 -0.2062263 
0.04588793 0.07612935 -0.394165 
-0.2712161 -0.2602479 0.2166247 
-0.2213084 -0.1887967 0.08571323 
-0.4473098 -0.206501 0.141013 
-0.309224 -0.0927611 -0.08486115 
-0.04170963 -0.3246165 0.3211147 
0.4368076 -0.06009803 -0.1036231 
-0.3598795 -0.2192994 0.1428929 
0.2840214 0.07094653 -0.393978 
-0.3322725 -0.05170741 -0.1271775 
0.3755724 -0.1673911 0.04581956 
0.2899986 -0.2922091 0.2843653 
-0.0461008 0.001020089 -0.2259086 
-0.3294103 0.03193943 -0.3052292 
-0.2130293 -0.008802859 -0.1885883 
-0.3561454 -0.2554663 0.2166676 
-0.04078672 -0.08258626 -0.1179521 
0.2608434 -0.09485795 -0.09412777 
-0.1161827 0.03530932 -0.3253441 
-0.3363099 -0.2587176 0.2090822 
-0.1331412 -0.03205035 -0.180352 
-0.2916397 -0.2558028 0.2025734 
-0.182218 -0.08731977 -0.09754189 
0.02507373 -0.345154 0.3792039 
0.09067228 -0.01690773 -0.2023268 
-0.2013473 -0.01087967 -0.2155412 
0.481724 -0.1469113 0.01559492 
-0.440836 -0.16847 0.06935663 
-0.3618355 -0.03317897 -0.190555 
-0.08495571 -0.1525415 0.009586371 
0.08537442 0.1018111 -0.4511055 
0.3048928 -0.0327644 -0.1828728 
-0.06758611 -0.24162 0.1921009 
0.4639507 -0.04706847 -0.1799944 
-0.2717014 0.06854055 -0.3479006 
-0.1677602 -0.03788059 -0.1608771 
-0.3023072 0.004565844 -0.2623403 
-0.102298 -0.1869514 0.2258791 
0.3232939 0.04783756 -0.3520154 
-0.2431782 -0.1662474 0.0452132 
0.1383782 -0.3391947 0.3638503 
-0.1973595 -0.1170084 -0.02492108 
-0.1719934 -0.2444413 0.1785911 
-0.448586 -0.07157136 -0.09643362 
0.2643219 -0.157273 0.01954128 
0.03787902 -0.1015103 -0.08434541 
0.02531523 -0.3550271 0.3752748 
0.2774836 -0.1407638 -0.01205264 
-0.1140715 -0.200679 0.1079187 
-0.4283534 -0.09296967 -0.07882544 
0.02069133 -0.3488703 0.374317 
0.4216323 -0.0007543167 -0.243388 
-0.3105153 -0.05320286 -0.1561438 
0.0831106 -0.3074808 0.3075111 
-0.1237715 -0.1958668 0.09371453 
0.06751523 -0.1012188 -0.01762906 
0.4388484 -0.0767719 -0.1251916 
0.04139942 0.0890085 -0.4256774 
-0.3890089 -0.1911493 0.09412502 
-0.4556608 -0.2004011 0.1133285 
-0.03967554 -0.1635493 0.0990656 
0.3399974 -0.2059468 0.1389557 
0.1041203 0.04213765 -0.3454033 
0.1002659 -0.009628624 -0.2494002 
0.2397077 -0.2639165 0.2149737 
-0.1966528 -0.02232706 -0.2144848 
-0.3190807 0.06214647 -0.3608647 
-0.2770768 -0.08158895 -0.09256625 
0.2325977 -0.0778545 -0.1254827 
0.2641857 -0.2431827 0.1734732 
-0.2579422 -0.0009163335 -0.2375703 
-0.007013059 -0.2240917 0.1416334 
0.4162918 -0.2362083 0.1725468 
-0.1734488 0.1015983 -0.4090911 
-0.3979557 -0.2564526 0.2150501 
-0.4200922 -0.1825191 0.1081598 
-0.02321573 0.1212947 -0.4742257 
0.2925751 -0.2359199 0.191359 
0.2540199 0.08133718 -0.3926121 
0.4852432 -0.1244775 -0.03800114 
-0.1126541 -0.226944 0.1709271 
0.2584701 -0.288229 0.2553756 
-0.1721366 0.08116206 -0.4038357 
0.4047042 -0.04187171 -0.1912426 
0.1967594 0.01672647 -0.2118186 
0.4523057 -0.1364607 -0.01833651 
0.04210984 -0.03880284 -0.1920848 
-0.2424956 -0.2422985 0.1779415 
0.1375536 -0.04968855 -0.1822385 
0.4500576 -0.1382986 -0.01391213 
0.3387288 -0.1347381 -0.02058487 
0.4207969 -0.002976569 -0.2581339 
0.09198892 0.04862381 -0.3240128 
-0.1247004 0.02288669 -0.2994433 
-0.1111521 -0.3089544 0.3072783 
0.3189127 0.04847173 -0.3503848 
0.4415493 -0.1447768 -0.002107223 
-0.1501353 -0.348742 0.3644543 
-0.1650671 -0.003838337 -0.2086557 
-0.3160101 -0.108047 -0.07752517 
-0.1299804 -0.04791475 -0.1725702 
-0.3581374 -0.1229406 -0.02794955 
0.1257842 -0.2249774 0.1471013 
-0.4728284 -0.08689485 -0.08802394 
0.3621216 -0.1295312 -0.03028995 
0.1408956 -0.3437735 0.3652615 
-0.345208 0.05403488 -0.3181533 
-0.2136317 -0.2469745 0.2314586 
0.4049864 -0.2110897 0.1167005 
0.1470394 0.08661523 -0.4269551 
-0.1742785 -0.05513342 -0.1573956 
0.2230049 -0.3175334 0.3310414 
0.4011775 -0.2023396 0.1241874 
0.2650248 -0.2325727 0.1484434 
0.2288057 -0.1259122 -0.03023301 
-0.2340098 -0.02853657 -0.191772 
-0.2635263 -0.216143 0.1563816 
0.2734105 -0.289261 0.2573335 
0.4243121 -0.2214933 0.1340877 
0.0988149 -0.2792236 0.2385017 
-0.2562183 -0.3197687 0.3117077 
-0.2811739 -0.2165951 0.1338674 
-0.491475 -0.08293673 -0.09105715 
-0.1386432 -0.2212059 0.1388723 
-0.2643795 -0.2123546 0.1698269 
-0.4101205 -0.2440193 0.197753 
-0.2789024 0.06176387 -0.3482021 
0.353874 0.02300439 -0.300588 
-0.1870403 -0.08460739 -0.09291153 
-0.2771264 -0.1272638 0.04344787 
-0.1864638 -0.3335035 0.3562605 
0.05182883 -0.2125142 0.1201066 
-0.02358821 -0.2142381 0.1321692 
-0.160513 0.09346327 -0.4209134 
-0.2638527 -0.1213591 -0.0340738 
-0.07266442 0.00732632 -0.2749843 
-0.2590945 0.05521229 -0.3499141 
0.3139054 -0.1956705 0.09578437 
0.00117119 -0.1748666 0.04945447 
0.3900248 -0.02568555 -0.1385835 
0.1233616 0.1010417 -0.4341343 
0.4628694 -0.1728304 0.04974543 
0.1373374 -0.3043313 0.28519 
-0.1672285 0.07992864 -0.3991103 
0.08240967 -0.09008155 -0.1055833 
0.283891 -0.008009841 -0.2346898 
0.1913011 0.1012947 -0.4373955 
0.1256387 -0.1992859 0.09547366 
-0.03607109 0.04313581 -0.3396865 
0.318598 0.05091323 -0.3475071 
-0.3859346 0.03632817 -0.3068627 
-0.2061297 0.07767507 -0.378372 
-0.2770251 -0.1852022 0.07897613 
0.1455567 -0.3475651 0.367374 
0.07583993 -0.3071716 0.3270413 
-0.3626226 -0.2592791 0.2336827 
-0.3597738 -0.09573678 -0.07677373 
-0.1828686 -0.3304553 0.3503759 
0.1421752 0.09769648 -0.43983 
-0.1045483 0.1099689 -0.4562052 
0.07299136 0.01914829 -0.2794142 
-0.342144 -0.07243125 -0.1193936 
0.4674688 -0.1335892 -0.002482574 
-0.1357309 -0.02137512 -0.2364742 
-0.2531411 -0.1889819 0.08759047 
0.3046888 -0.2161104 0.1398394 
-0.3946696 0.02525601 -0.2691095 
0.1498471 -0.1713657 0.04075187 
0.2981995 -0.2540835 0.1949354 
-0.2641426 -0.0467083 -0.1370779 
0.2880341 0.08373119 0.2516652 
0.2565458 0.07780629 -0.3923599 
-0.1579036 -0.06796313 0.3468089 
-0.4272522 -0.1850157 0.0851667 
-0.1770343 -0.01276864 -0.2326606 
-0.4762707 -0.06753406 -0.1021929 
-0.1895746 -0.2456717 0.2343083 
-0.2484662 -0.09099798 -0.09036443 
0.4284938 -0.009802248 -0.2477704 
0.1199981 -0.01038018 -0.2199614 
-0.4676219 -0.04404961 -0.1619201 
-0.408325 -0.1321908 0.01152328 
0.262854 -0.01913581 -0.2206726 
0.2418986 -0.1995175 0.09592374 
0.04401846 -0.3532571 0.3846388 
-0.2476819 -0.1802048 0.09224469 
0.3260056 -0.08580419 -0.1072678 
-0.353303 -0.05843843 -0.1159199 
-0.145641 -0.3027506 0.3149861 
-0.3706204 0.03176576 -0.3071998 
0.2604789 -0.2035511 0.1035406 
0.1121829 0.1031559 -0.4060405 
-0.1176953 -0.3279683 0.3490877 
-0.2844449 0.08797238 -0.3947449 
-0.1348216 -0.215768 0.1285412 
-0.2065508 0.06859146 -0.355559 
-0.03922096 0.04784708 -0.3483688 
0.1784378 0.09882196 -0.4456048 
-0.2622606 -0.3229905 0.3229672 
0.2809061 -4.173622e-05 -0.2690021 
-0.3489572 -0.2843494 0.2585351 
0.4348536 -0.007984141 -0.2373644 
-0.114635 -0.1922349 0.1019118 
-0.07263516 -0.1445872 -0.004660922 
-0.1743925 -0.3128686 0.2988341 
-0.143216 -0.03559105 -0.1775542 
0.4678987 -0.1845315 0.07084964 
0.3408313 0.05263693 -0.3474576 
-0.2030336 -0.3160301 0.3142128 
-0.1333219 -0.1075219 -0.07176021 
-0.2196341 0.07461614 -0.3869526 
-0.322291 -0.2967921 0.2772484 
-0.427362 -0.1462065 0.05357205 
-0.4315901 -0.1390446 0.04261351 
0.3371612 -0.2619867 0.2242351 
-0.2462187 -0.1724597 0.05441516 
-0.1722516 0.08667714 -0.4112096 
-0.09950607 -0.02821766 -0.2085478 
-0.1126392 0.04155902 -0.2739787 
-0.3126292 -0.1301084 -0.01778725 
-0.4562379 -0.0415412 -0.1552096 
-0.4094052 -0.02581022 -0.154401 
-0.4134659 -0.1226035 -0.02548284 
0.252217 0.07914503 -0.4151794 
-0.1502482 0.01159549 -0.25477 
-0.02515987 -0.2149935 0.1439159 
0.3159005 -0.03362071 -0.1974594 
0.2202347 -0.1037772 -0.07770806 
-0.2010354 -0.2208584 0.1291391 
0.2235143 -0.09852923 -0.08708037 
-0.4447167 -0.1732644 0.06615881 
0.2600985 -0.06228301 -0.1569949 
0.3945801 -0.2363694 0.1814156 
0.2867421 -0.1816192 0.06812313 
0.4652028 -0.04466029 -0.1706277 
0.1520763 -0.2523964 0.1914448 
-0.08546486 -0.1448102 -0.004497439 
-0.2991597 0.06499027 -0.3621023 
-0.1823639 -0.1915442 0.08722124 
-0.4241451 -0.1852226 0.08547652 
-0.193804 -0.06354648 -0.1201775 
-0.3836271 -0.1321069 0.00884691 
-0.1176459 -0.03967153 -0.1869 
-0.2631265 0.06301854 -0.3637238 
0.009928872 -0.2306143 0.1552846 
0.2445963 -0.1119608 0.04908164 
0.3787337 -0.1376295 0.02292946 
-0.1329008 0.1117199 -0.4549206 
0.2469411 -0.251628 0.2242788 
-0.1846357 0.1055529 -0.4383124 
0.1834144 -0.1128814 -0.0452506 
0.3463596 -0.1942954 0.1494858 
-0.1473317 -0.1334001 -0.003500698 
-0.2879222 -0.2708805 0.2087411 
-0.1516827 -0.03628347 0.34383 
0.3477644 0.00650076 -0.2800758 
-0.2953172 0.07099394 -0.3762904 
0.2900753 -0.02732987 -0.2177913 
0.3336259 0.01717309 -0.2371478 
0.1765033 -0.2175131 0.1731994 
-0.07167052 -0.2041343 0.110941 
0.2595616 -0.1374723 -0.0160932 
0.09219027 -0.3078229 0.3189715 
-0.1227729 -0.03915514 -0.1631795 
-0.4020637 -0.1658266 0.09078401 
0.3054658 -0.2808183 0.257497 
0.002964524 -0.2136846 0.1255072 
0.03923001 -0.02909906 -0.2058326 
-0.1722609 0.08645257 -0.4102421 
-0.3279983 -0.1313958 0.01196143 
-0.3638183 -0.1776128 0.07719534 
-0.1881658 0.07543763 -0.3895239 
-0.1562257 -0.1007541 -0.0844992 
-0.0387078 -0.2120389 0.1236923 
0.3211723 -0.2250065 0.1420018 
-0.2491266 -0.3217114 0.3313021 
-0.3111446 -0.1854386 0.08046129 
-0.4883851 -0.1162512 -0.02054993 
-0.2236004 0.02594851 -0.2802014 
0.09754651 -0.3505481 0.3704414 
-0.3710305 -0.136185 0.02974002 
0.319485 -0.0343071 -0.1657463 
0.1671666 -0.2059399 0.1274611 
-0.1173481 -0.09471894 -0.08763325 
0.2310537 -0.07868718 -0.1234231 
-0.02739023 0.01241152 -0.2776906 
0.1534024 -0.06972414 -0.1392696 
0.05768029 0.1184754 -0.4651321 
0.3495933 -0.05676589 -0.162424 
0.2745184 -0.1923422 0.07675262 
0.01022525 -0.3563005 0.3865735 
-0.05663539 -0.3512415 0.3683501 
0.20108 -0.2271131 0.1446302 
0.194407 -0.1693179 0.04041448 
-0.2301937 -0.1394831 0.002011212 
-0.4362594 -0.006352814 -0.2353861 
-0.2361216 0.06399333 -0.3652281 
-0.2845657 -0.2530851 0.2237903 
-0.4645943 -0.03866237 -0.1740326 
-0.1909922 -0.1037175 -0.06833392 
0.1267552 -0.0246891 -0.2128985 
0.4421189 -0.1642315 0.07530107 
-0.1984754 -0.2929762 0.2930366 
-0.2102103 -0.245853 0.1825143 
-0.366382 -0.03242195 -0.1913108 
-0.4133952 -0.05830216 -0.1407043 
0.3605259 -0.1005263 -0.0264314 
0.4844414 -0.1448484 -0.0008071386 
-0.2886364 -0.2132779 0.1474859 
0.3258413 0.004885601 -0.260374 
0.1039877 0.06185901 -0.3746456 
0.1462071 -0.2492 0.2487486 
-0.4046479 -0.2199593 0.1608738 
0.1777828 -0.1537893 0.0169908 
-0.07931002 0.08563027 -0.3743518 
-0.006289553 -0.06974083 -0.1394667 
0.1643218 -0.0524733 -0.1525223 
-0.2608083 0.04568776 -0.3132445 
-0.2453967 -0.07386468 -0.1090055 
0.1254742 -0.1990665 0.09502447 
0.2218288 -0.002685648 -0.2641907 
0.1492258 -0.01051304 -0.2527885 
0.3001063 -0.0635488 -0.1493647 
-0.2167048 0.08775342 -0.4099124 
-0.1521397 -0.1301496 -0.03030714 
0.3657737 -0.03411898 -0.20895 
0.3580349 -0.2758393 0.2337195 
0.04102013 0.08660644 -0.366052 
0.3918405 -0.006146811 -0.2437836 
0.1687155 0.02381884 -0.2594498 
-0.3325404 -0.03674215 -0.1801655 
0.3072265 -0.3005413 0.2863781 
-0.04896792 -0.3473923 0.3774819 
0.4708577 -0.1470256 0.01882523 
0.4408873 -0.2106281 0.1157885 
-0.4831975 -0.05958143 -0.128853 
-0.2234212 -0.2062156 0.1411825 
0.02337305 0.004509313 -0.2767237 
-0.2679255 0.07723651 -0.3893327 
-0.2873109 0.05962116 -0.3568194 
0.03684702 0.1112304 -0.4611261 
-0.006612874 0.1137134 -0.4662777 
-0.21275 0.01479396 -0.2596329 
0.1835746 -0.0366989 -0.2002072 
-0.2331396 -0.2035931 0.1290475 
-0.2599172 -0.1218159 -0.03484821 
0.3472333 -0.2865546 0.253344 
-0.1738537 -0.2150008 0.1281122 
-0.05294231 -0.2798219 0.2497969 
0.07902052 -0.2800722 0.2791239 
-0.06743915 -0.1567812 0.1589336 
0.1368043 -0.1817089 0.06254919 
-0.4526176 -0.2055975 0.1389938 
0.4692248 -0.1684535 0.0409927 
0.1724935 -0.1772158 0.05535093 
-0.4003894 0.01072383 -0.2739587 
-0.3142509 -0.1977402 0.1251442 
0.3301492 -0.1404142 -0.01015988 
-0.2410765 -0.2201887 0.1392166 
-0.296624 0.0669774 -0.3655125 
-0.3679481 -0.2533224 0.2214811 
0.3400275 -0.2817312 0.2493611 
0.1286054 -0.3009563 0.2849954 
-0.1011201 -0.2245042 0.1640627 
0.2693205 0.04080734 -0.3449516 
-0.1255439 -0.05698016 -0.1630072 
0.1222241 0.1128165 -0.4518234 
0.2363076 -0.324008 0.3326108 
-0.4885221 -0.1323546 -0.005277465 
0.0150858 -0.2046691 0.1982411 
0.4210708 -0.0424316 -0.1877595 
0.1724159 -0.2543066 0.2136006 
-0.1806494 0.1055112 -0.4365215 
-0.2517149 -0.242958 0.192939 
-0.2075946 -0.01040278 -0.2024205 
0.4636413 -0.1299359 -0.0299673 
0.06743414 -0.2894509 0.2576532 
0.02196399 -0.3532714 0.3871226 
0.2889233 -0.01989816 -0.2314802 
-0.2549329 0.0868245 -0.4043775 
0.2862836 -0.2935866 0.2687514 
0.3018274 -0.1587947 0.1231472 
-0.1652531 -0.09665268 0.3258661 
0.2555912 -0.008317827 -0.1882283 
0.02034311 -0.3484328 0.3740551 
0.1660586 -0.3058728 0.332635 
-0.3391727 0.05540705 -0.3438629 
-0.3137202 -0.2175763 0.1897111 
-0.4844422 -0.05859242 -0.1363993 
-0.09844413 0.1121219 -0.4572465 
0.2962144 -0.2936915 0.2812496 
-0.3283399 0.03269836 -0.2818456 
-0.1852853 -0.2020976 0.1054262 
0.135546 0.03262231 -0.3293465 
0.3720466 0.03048515 -0.326078 
-0.09657175 -0.1271235 -0.03858592 
-0.1327534 -0.09148952 -0.1006357 
-0.3656684 -0.032194 -0.1921349 
0.01823481 -0.02914187 -0.2091828 
-0.2381985 0.06991097 -0.3786469 
-0.2560709 -0.01324529 -0.2293449 
0.05376195 -0.3553795 0.3825469 
0.3783264 -0.1359134 -0.006348698 
0.1608315 0.07740187 -0.4109481 
0.3154343 0.04296748 -0.3115501 
0.3987184 -0.04749444 -0.1793255 
-0.3061267 0.03715891 -0.313141 
0.2356248 -0.3275969 0.3337602 
0.1532976 -0.0005589435 -0.2369013 
-0.2019048 -0.1164318 -0.03432273 
-0.09613357 0.04274881 -0.3358284 
-0.2935508 -0.04867377 -0.1523401 
0.2624936 -0.03402831 -0.1569111 
-0.07628039 0.1221797 -0.4682367 
-0.4359508 -0.01031477 -0.2283368 
-0.3933879 -0.09704143 -0.0733825 
0.1326774 0.04294647 -0.2892318 
-0.4095139 -0.0597087 -0.124272 
-0.05766716 -0.253126 0.2379386 
-0.1580606 0.05585131 -0.3538524 
0.2734263 -0.1103709 0.1484115 
-0.440867 -0.1031576 -0.05916241 
-0.1986044 0.07632469 -0.3686897 
0.3930269 -0.2499563 0.1942654 
0.2654045 -0.3186529 0.3121254 
-0.1426292 -0.02918288 -0.1853421 
-0.06483696 -0.3483459 0.3793471 
0.3612448 -0.1966888 0.09572569 
0.2075996 -0.03331463 -0.1134574 
0.4846692 -0.0950831 -0.0902802 
0.4520294 -0.1307248 -0.01790186 
0.3787004 -0.1000346 -0.02633516 
-0.3481615 -0.2590661 0.2097372 
-0.08251725 0.07924987 -0.37622 
0.1837773 0.07439026 -0.4039983 
-0.3070234 -0.116168 -0.04321134 
0.1316036 -0.06133221 -0.1549091 
-0.02803031 -0.1481768 0.001126718 
-0.09653692 -0.2267789 0.1467227 
0.2939895 -0.0409258 -0.1224118 
-0.1337163 -0.1963349 0.1258671 
0.2578711 -0.113437 -0.06482025 
0.2643249 0.02166464 -0.2681436 
-0.1442318 -0.2684655 0.2242621 
0.3627596 0.03157153 -0.3210706 
0.2028527 -0.2395687 0.1777028 
-0.3414677 -0.2126829 0.1364003 
-0.2311467 -0.1818007 0.07249494 
-0.3554991 -0.1996521 0.1477653 
-0.4053095 0.02102582 -0.2675613 
-0.3988259 -0.2391568 0.1952913 
-0.1186716 -0.2224433 0.1393495 
0.2103856 -0.315347 0.3158552 
-0.2752537 -0.2032713 0.1503316 
-0.2758285 0.07208887 -0.3791512 
0.1801068 -0.1201285 -0.04662811 
0.1756611 -0.1702651 0.05847882 
-0.2715953 -0.08275267 -0.1036587 
-0.2107725 -0.2669907 0.2555464 
-0.1309021 0.09324668 -0.4246582 
-0.2169402 -0.2357777 0.165385 
0.2096776 -0.2049762 0.1353137 
-0.3292111 -0.2846576 0.2649055 
0.3631417 -0.2713088 0.2455631 
0.1856744 -0.1992556 0.0915585 
-0.3549623 -0.285336 0.2567581 
-0.1668493 -0.2921742 0.2668987 
-0.0921409 0.09488558 -0.4143818 
-0.2976056 0.06977844 -0.3728581 
-0.2608494 -0.1996195 0.1042665 
-0.1521329 -0.0543424 0.3357323 
-0.2935835 -0.1568727 0.05684761 
0.3928041 -0.1412574 0.0007384964 
-0.06404221 -0.2087755 0.1147029 
-0.3342768 -0.2108892 0.1836897 
0.1719343 -0.1958464 0.1092369 
-0.05198905 0.03181056 -0.3180773 
-0.2407851 -0.1995787 0.1244659 
0.1092639 -0.1990178 0.09481464 
0.1178029 -0.2235776 0.140766 
-0.03314643 -0.04744679 -0.01478591 
0.2043995 0.02068704 -0.2875823 
-0.1987405 -0.1985299 0.09876987 
-0.1479831 -0.02900694 0.3417758 
-0.06992966 -0.1295339 -0.0325726 
0.3621652 0.0277757 -0.3128371 
-0.3781505 -0.1980824 0.141995 
-0.095687 -0.04660795 -0.1621069 
0.2499812 -0.3126178 0.3199115 
0.3832432 -0.2648991 0.2147838 
0.2554988 -0.1309244 0.007971416 
0.2175638 -0.1080951 -0.06807488 
0.005768171 -0.2736096 0.2299848 
-0.3914272 -0.1914053 0.09954485 
-0.1829529 -0.09824996 -0.08692203 
-0.2910798 -0.117267 -0.03094409 
0.3823687 -0.2645422 0.2234033 
0.01155735 -0.357847 0.3867396 
0.03643999 -0.1131024 -0.06489804 
-0.256327 -0.1912179 0.08935943 
0.2578224 -0.2807755 0.2434649 
0.1702637 -0.2638855 0.2128306 
0.2869676 0.0536636 0.2202338 
0.4434702 -0.1369671 -0.01815197 
0.3832262 -0.117913 -0.06667799 
0.2438376 -0.03244435 -0.2077843 
-0.4956592 -0.1191658 -0.01494231 
-0.004646853 -0.3263685 0.3246306 
-0.2583369 -0.152936 0.01558303 
-0.08611935 -0.0060254 -0.2076233 
-0.4030634 -0.1850439 0.09716026 
-0.05528438 0.1237086 -0.4505887 
-0.4253252 -0.03035744 -0.1361462 
0.4287807 -0.04244985 -0.1882171 
-0.1678956 0.08655316 -0.4017633 
0.2254306 0.0006440044 -0.2877006 
-0.4881338 -0.07078755 -0.1050424 
-0.4398186 -0.2180804 0.143311 
0.3373232 0.04857706 -0.3565383 
-0.2570499 -0.1465524 0.009080282 
0.3491382 -0.2140594 0.1223014 
0.3001384 -0.08837296 0.1818552 
0.1847349 -0.09826776 -0.08880036 
-0.4906622 -0.06964976 -0.1149871 
-0.2218637 0.07877579 -0.3784412 
0.06623673 -0.2860976 0.2518228 
-0.4253981 -0.1878114 0.08936606 
0.09553093 0.03853169 -0.3336065 
-0.2989669 -0.2094743 0.1227623 
0.1809045 -0.02099423 -0.1500439 
-0.02379491 0.07397972 -0.3969797 
0.4463125 -0.1882721 0.0710336 
-0.3409588 -0.02093444 -0.2132411 
0.1725347 -0.177349 0.05603667 
-0.08283424 0.06503605 -0.3277051 
-0.3637186 -0.001786328 -0.2517004 
0.08810728 -0.349575 0.3816171 
0.1674722 0.06500013 -0.3743766 
-0.1962265 -0.191647 0.1114455 
0.22075 -0.2133598 0.2002806 
0.1735103 0.002019396 -0.2163748 
-0.1883671 -0.06263356 -0.1528766 
-0.1281307 0.1196292 -0.4590326 
-0.425157 -0.1606869 0.04194704 
-0.1798099 -0.01764951 0.3361675 
0.3313814 -0.116764 -0.05921878 
0.2767248 -0.01451572 -0.2357593 
-0.1194926 -0.3128316 0.2983256 
0.3726794 -0.02116839 -0.153266 
0.07322695 0.1084447 -0.4621466 
-0.3264188 0.003046561 -0.2288976 
-0.2253619 -0.1950348 0.09458102 
-0.3030626 -0.1268043 -0.02726051 
0.1668133 -0.220544 0.1532985 
-0.4351512 -0.1607888 0.04224757 
0.02766885 0.02430212 -0.3180938 
0.4715037 -0.1534112 0.01243071 
0.2395538 -0.03416406 -0.2156614 
-0.237933 0.03574519 -0.2940849 
-0.03894623 -0.3565322 0.3790882 
0.3514648 0.04104711 -0.3453715 
-0.2029219 0.09923959 -0.431874 
0.2719918 -0.3064196 0.2964114 
0.3491668 -0.03081356 -0.2099143 
0.3830258 0.02739229 -0.296575 
-0.2571915 -0.2360888 0.1675413 
-0.1953006 -0.1629541 0.04573969 
0.4001181 -0.1518117 0.05057547 
0.2969704 -0.009323855 0.2228457 
-0.4463089 -0.01150127 -0.2196096 
-0.3320928 0.02611949 -0.29964 
-0.3061804 0.0389393 -0.2985788 
0.2051995 -0.2116446 0.1172507 
-0.09280813 -0.2562475 0.198389 
-0.1415718 0.1085682 -0.4446881 
0.2963228 -0.3063276 0.2878971 
-0.2947088 -0.0330901 -0.1931206 
0.2909339 -0.2892953 0.2661982 
-0.4429447 -0.06458481 -0.1114346 
0.2021573 -0.09445722 -0.09579262 
-0.03892557 0.03886281 -0.3320571 
0.1974574 -0.1853519 0.07014304 
0.3658356 0.03238564 -0.319455 
-0.2214681 0.02461894 -0.2820262 
0.06234314 0.003073889 -0.2818297 
0.2738014 -0.001778142 0.21183 
-0.1094355 0.002452296 -0.2643491 
-0.1181246 -0.3124287 0.2976751 
0.2519441 -0.1793651 0.0590361 
-0.2444237 -0.2489397 0.193411 
-0.2982188 -0.07316718 -0.1200192 
-0.169529 -0.1048433 0.3232952 
0.06615643 -0.3513159 0.3790353 
0.02041588 0.02631401 -0.3220159 
0.005794115 -0.3535317 0.3835947 
-0.09938024 -0.236478 0.1841888 
0.4137554 -0.2380119 0.1744659 
-0.07067744 -0.09921823 -0.002198088 
0.01816972 -0.3018862 0.2804189 
0.2226441 -0.266828 0.2178034 
-0.4402264 0.006285551 -0.2384088 
-0.1235603 0.03969819 -0.3114275 
0.0472401 0.1189543 -0.4734307 
-0.2550071 -0.1312167 -0.01825212 
-0.3150738 -0.1434711 0.005804636 
-0.1656615 -0.06363258 -0.1426641 
0.136036 -0.1923369 0.081313 
0.1536395 -0.2093362 0.1313454 
0.1890592 -0.04084487 -0.1915904 
0.06501578 -0.208883 0.2285387 
-0.206514 -0.1404401 0.02916869 
-0.07929217 0.1164884 -0.438354 
-0.4909694 -0.08515979 -0.08234625 
-0.1711071 -0.2202834 0.168686 
-0.1378587 0.05409141 -0.3455427 
-0.3241642 -0.2192445 0.1742714 
0.1656771 0.01989125 -0.3047987 
0.1303605 0.1056337 -0.4595318 
-0.2387031 -0.2417819 0.1943093 
-0.3952573 -0.06060737 -0.1230304 
0.1453625 -0.3248493 0.3218156 
-0.1082764 -0.12001 -0.04931165 
-0.1492834 -0.1755034 0.06241369 
-0.2483881 0.05999032 -0.3596399 
-0.04474423 -0.02035448 -0.2198139 
-0.4318593 -0.08347365 -0.09432172 
-0.3684034 0.005057189 -0.2608831 
0.3343218 -0.2476912 0.2076426 
0.2819237 -0.02832718 -0.1903084 
0.2571517 -0.01239448 -0.2459688 
-0.02246849 -0.2251638 0.2100115 
-0.3093266 -0.2476393 0.2127433 
0.2957189 -0.3053052 0.2976918 
-0.2083755 -0.22156 0.1575399 
-0.1976805 -0.2512523 0.2209495 
-0.1051991 -0.08730743 0.1140121 
-0.4132048 -0.1789795 0.09344735 
-0.389263 -0.1933874 0.097524 
-0.2052794 0.05565052 -0.3526109 
0.4117776 -0.2028681 0.1018157 
0.3296322 0.05704661 -0.3582755 
-0.1909925 -0.1734864 0.07995313 
0.1008318 -0.03279967 -0.1918867 
0.04463855 -0.2896889 0.257507 
0.351936 0.01312068 -0.2815515 
-0.1674049 -0.1159047 -0.05575668 
-0.1313493 -0.3401638 0.3697707 
0.2531978 -0.2301037 0.2324321 
0.2999268 -0.199607 0.1211969 
-0.03016985 -0.3553341 0.3783985 
-0.4806469 -0.1726284 0.06827728 
-0.3619997 -0.1682454 0.09576084 
0.3994364 0.01903107 -0.2912995 
-0.10068 0.1148829 -0.464155 
-0.2343847 -0.3308498 0.3346765 
-0.3874404 0.01514923 -0.2690284 
0.2557543 0.0774707 -0.4009821 
-0.07405662 -0.2641205 0.211266 
-0.1188411 -0.3219264 0.3156503 
0.06960768 -0.3387189 0.3580331 
-0.3841139 -0.1309958 -0.01572303 
0.4034987 -0.2497682 0.1978996 
-0.3912578 -0.06409423 -0.1281338 
0.1778824 -0.2642348 0.2477732 
0.3434389 -0.2135127 0.1203934 
-0.1295451 -0.3484519 0.3675425 
-0.356358 -0.1755228 0.09508739 
-0.3235804 -0.1875776 0.08388482 
-0.4645123 -0.1937512 0.1078828 
0.1505459 0.04430781 -0.348407 
-0.2085244 0.02561674 -0.29983 
0.005660445 0.009078447 -0.2807394 
0.1545912 -0.1943972 0.08581077 
0.1698547 0.0681428 -0.3607909 
0.01382196 0.1108277 -0.4645649 
-0.3089711 -0.1681416 0.04935183 
0.05726679 0.09141872 -0.4297592 
-0.1862543 -0.09317242 -0.08309049 
0.4295393 -0.1594987 0.06697101 
-0.3319887 -0.0416785 -0.1756264 
0.06421307 -0.001447714 -0.2300518 
-0.1739727 0.07599682 -0.3903737 
-0.09727668 0.1101922 -0.451883 
-0.3431483 -0.2905742 0.2642536 
-0.1866831 -0.3082427 0.3239811 
0.04850606 -0.2175862 0.1648631 
-0.2108708 0.01338423 -0.2779928 
-0.01051309 0.05290475 -0.3078906 
0.3308289 0.05306261 -0.3524236 
0.3836008 0.02024375 -0.3012951 
-0.4052739 -0.09522332 -0.0348219 
0.2275175 -0.3144584 0.3068757 
0.01120458 -0.2246702 0.1476394 
0.4325324 -0.1462538 0.002819137 
-0.4209622 -0.1883603 0.08958795 
0.4663222 -0.09209128 -0.08994004 
0.01373481 -0.0281613 -0.2091156 
0.133103 -0.3469936 0.3684559 
-0.07061581 -0.2408898 0.1982749 
0.3532766 -0.2761663 0.2359078 
-0.1714906 -0.1147001 0.3165276 
-0.333935 -0.1208698 -0.01542563 
-0.4427365 -0.1848112 0.08449407 
-0.1076258 0.112299 -0.4322858 
-0.1357751 -0.002627569 -0.1890388 
0.281193 -0.2943646 0.2677909 
0.1510865 -0.06954546 -0.1382153 
-0.207637 -0.02314831 -0.2061202 
-0.4268073 -0.2298409 0.1704767 
-0.1504901 -0.03899687 -0.1877946 
-0.4463509 -0.2184831 0.1457193 
-0.174842 -0.1747854 0.08231959 
-0.1541335 0.01451338 -0.2832613 
-0.4351684 -0.04068799 -0.1458497 
-0.3049993 -0.2925572 0.2835578 
-0.2909211 0.07669727 -0.371708 
-0.370903 -0.2206423 0.1447791 
0.1694673 -0.2688034 0.2244949 
-0.2128399 -0.3244167 0.3321618 
-0.1565149 -0.02092316 0.365084 
-0.04477084 -0.0119819 -0.2262023 
-0.3754575 0.03517838 -0.3092186 
0.1215129 0.1031785 -0.4246319 
-0.07356426 0.08193541 -0.3840955 
0.4224472 -0.1541369 -0.00111484 
0.2134861 0.03939411 -0.3186879 
-0.2649076 0.06321958 -0.3641111 
-0.481052 -0.13242 -0.005721199 
-0.2933491 -0.306683 0.3088971 
-0.168541 -0.2559915 0.2436168 
0.08286285 0.1139878 -0.4708629 
0.2355935 -0.1335772 -0.02271251 
-0.2753033 -0.1707233 0.06236966 
0.2086177 -0.06212641 -0.1524197 
0.157173 -0.1680598 0.03923051 
0.3769459 0.01697984 -0.2940953 
-0.1167851 -0.2486599 0.1849077 
0.04731075 -0.2438603 0.1766391 
-0.2749146 0.04947259 -0.3138714 
-0.424273 -0.1718174 0.02042117 
0.2922831 -0.1945028 0.09678515 
-0.377755 -0.1263564 0.03105738 
-0.4616453 -0.1940871 0.1066114 
-0.3517442 -0.1849558 0.08586588 
-0.1032719 -0.1237697 -0.04069397 
-0.006720936 -0.3463469 0.3667275 
-0.2917927 -0.1048694 -0.06414453 
-0.2655889 0.07541563 -0.3796191 
0.0763744 0.1135446 -0.4619443 
-0.1606097 -0.173722 0.2470918 
0.1297688 -0.2148305 0.1661056 
-0.258803 -0.05845876 -0.1558354 
0.1446306 -0.3080581 0.2972882 
0.3365154 -0.1348976 -0.02034735 
-0.2576003 -0.3148925 0.312152 
-0.254737 -0.1546388 0.01756783 
0.3327953 -0.02534189 -0.1965104 
0.4048604 0.008071116 -0.2696687 
-0.1716933 0.08849729 -0.4138327 
0.2313835 -0.1201961 -0.04867572 
0.07354506 -0.2088723 0.1248245 
-0.256799 0.06192328 -0.3626214 
0.3363579 -0.2200855 0.1317642 
0.1032382 0.08408031 -0.420461 
-0.223221 -0.207922 0.156976 
0.2897889 -0.04706268 0.1710583 
0.07491346 0.1156255 -0.4638939 
-0.1280824 -0.2515191 0.1953039 
0.3948974 -0.04032099 -0.1926879 
-0.3737655 -0.006473492 -0.1938788 
0.1769366 0.03720155 -0.3377364 
-0.3893152 0.01759557 -0.2746342 
-0.02725322 0.01435442 -0.2763148 
0.2279207 -0.3256106 0.3351567 
-0.08590531 0.008068509 -0.2275037 
0.2882084 -0.1596813 0.02392791 
-0.09804923 0.03106112 -0.2721311 
0.06710624 -0.3092519 0.3249692 
0.1710883 -0.03403475 -0.2032888 
-0.2490624 0.05951592 -0.3579222 
-0.2224727 0.009499617 -0.270676 
0.2357251 -0.1080446 -0.06972332 
-0.1434491 -0.02601777 -0.1917388 
0.08966943 -0.3366065 0.3669945 
-0.1317172 -0.2618612 0.2017884 
0.4841108 -0.1223838 -0.02145849 
-0.1731855 0.07897487 -0.3977229 
-0.1892633 -0.1367242 0.0001098974 
0.2407812 0.06203096 -0.3800392 
-0.008141709 0.09671053 -0.4055058 
0.3332565 -0.2044859 0.1231629 
-0.2060164 -0.0360578 -0.1906919 
-0.01456397 -0.01166129 -0.2208141 
0.3768004 -0.1435327 -0.004349025 
-0.3986213 0.0243841 -0.2687899 
0.2975178 -0.06640486 -0.1451764 
0.1219001 0.09062338 -0.4064018 
-0.1822826 -0.2013885 0.1379685 
-0.4712293 -0.1293805 0.01462058 
0.09009761 -0.2001359 0.1042284 
0.05425975 0.1025237 -0.4144729 
-0.01577207 0.03943309 -0.3081353 
0.3559059 -0.0249234 -0.2196054 
0.460906 -0.04028852 -0.1789122 
0.4012136 0.01892942 -0.2869412 
-0.2420332 -0.2442855 0.1997431 
0.1504112 0.04732902 -0.3507093 
0.372544 -0.1366508 0.001509603 
0.3317025 -0.04023216 -0.1887541 
-0.192812 -0.04905282 -0.1451289 
0.1734649 -0.04207067 -0.1899226 
-0.2489087 0.04139505 -0.3217661 
0.116507 -0.1956964 0.1278746 
-0.1939978 -0.1351912 -0.004393256 
-0.2275743 0.06240607 -0.3648619 
-0.2355531 -0.3222006 0.3349565 
-0.2382566 -0.01156729 -0.2346291 
0.408586 -0.04684515 -0.1791076 
-0.4495089 -0.02092605 -0.2089916 
-0.4188679 0.0179708 -0.2550186 
-0.02378891 -0.01582798 -0.2346633 
0.1454823 -0.0737614 -0.1340078 
0.3247754 -0.01288631 -0.1657608 
0.3190232 -0.2997399 0.2768298 
-0.4035968 -0.06326415 -0.1270629 
0.06763414 -0.1330811 0.1646417 
-0.1650731 0.103777 -0.4316176 
0.1284106 -0.1876523 0.07391187 
-0.1018177 -0.1022185 -0.08332103 
0.1936919 -0.01128532 -0.2446597 
0.2782934 -0.2097496 0.1953602 
0.02625459 -0.0004329305 -0.2541364 
-0.1214687 -0.0429396 -0.1747082 
0.229741 -0.196038 0.1027753 
0.1095962 0.01173482 -0.2487922 
-0.149416 0.1135442 -0.4318751 
-0.3367944 -0.02095945 -0.2137618 
-0.03542201 -0.2815192 0.258444 
-0.07171094 0.03720387 -0.3256942 
0.3846903 0.03016213 -0.3039966 
0.08397105 0.03997257 -0.3402309 
0.1310274 0.1015161 -0.4056953 
-0.1587038 -0.2859782 0.2584027 
-0.3868453 -0.1716113 0.05864491 
0.195214 0.007766144 -0.2843038 
-0.2656201 -0.1159611 -0.03022267 
-0.04912632 -0.292886 0.2687222 
0.3540751 -0.1763579 0.09329177 
0.2124321 -0.1119378 -0.07470112 
-0.400894 -0.0009612159 -0.2383706 
-0.2920479 -0.1802087 0.05006751 
0.2807463 -0.1719853 0.1055881 
-0.2129912 -0.1423586 0.01510797 
-0.3746383 -0.2026391 0.1429653 
0.02766233 -0.3032552 0.320839 
-0.1820616 -0.3453712 0.3559933 
0.05010016 0.1073606 -0.4402346 
0.2944453 -0.3038633 0.2968836 
-0.01417033 0.08752445 -0.4205665 
-0.3130773 -0.2211348 0.1591253 
0.04982359 0.1022632 -0.4454729 
0.1307439 -0.3235508 0.3189706 
-0.4608853 -0.1263955 -0.01754846 
0.1372695 -0.001895317 -0.2277138 
0.3619822 -0.1346612 0.0001158844 
-0.427454 -0.237912 0.1787267 
-0.3456931 -0.2084602 0.1800473 
0.2830247 -0.2208666 0.1336326 
0.4632386 -0.06395315 -0.1473725 
0.09285161 0.04262573 -0.3397133 
0.2529063 -0.1921157 0.08153024 
-0.1625068 -0.08436779 0.3370071 
-0.2436475 0.02974137 -0.2776172 
-0.182665 -0.3091406 0.3093348 
-0.305253 -0.3076592 0.2931161 
-0.2405701 0.09244955 -0.4100327 
0.1245199 0.09537408 -0.4061693 
-0.03388359 -0.02299122 -0.2204546 
-0.4394822 -0.1019013 -0.0307503 
0.3258165 0.03323291 -0.3301889 
0.410534 0.0007084771 -0.2402789 
0.01352473 -0.01088049 -0.2206713 
0.03601892 0.05812529 -0.3689556 
0.266519 -0.1357903 -0.01324284 
0.2459748 0.05763093 -0.3611957 
-0.3253518 -0.2253545 0.1531639 
-0.3339793 0.05654887 -0.3500235 
0.4851042 -0.1461873 0.01541714 
0.04651948 -0.02167721 -0.2255845 
-0.1564859 0.0307599 -0.2288517 
0.252201 -0.2374528 0.2144012 
-0.01237566 -5.998245e-05 -0.2255155 
0.05461486 0.1115383 -0.4278217 
-0.05400512 -0.3347501 0.3731452 
-0.1545991 -0.001002392 -0.2550031 
-0.288583 -0.1682122 0.05014029 
0.1173412 0.008698086 -0.2537227 
0.1183748 -0.3508011 0.3719038 
-0.1033173 -0.3464469 0.3740253 
-0.179006 -0.08441406 -0.1030168 
0.2837518 -0.01681809 -0.2309026 
0.1400327 -0.007681571 -0.2350223 
0.4320498 -0.1419427 -0.005916816 
-0.3185399 -0.2016715 0.1597567 
-0.2448153 -0.2604374 0.2085701 
0.4103467 0.00712109 -0.2771038 
0.03883943 0.1148855 -0.4322321 
-0.1721055 -0.3422126 0.359486 
0.2124408 -0.2541212 0.1967525 
0.02310872 -0.3461803 0.3605619 
-0.281425 -0.2665722 0.220461 
-0.2475004 -0.002692246 -0.2460349 
0.4628877 -0.1944611 0.08815619 
-0.3415315 -0.1322392 -0.01402266 
0.2723929 -0.0444448 -0.1562272 
0.1207116 0.007089445 -0.2494524 
-0.2608014 -0.3211986 0.322634 
0.1160241 0.001833512 -0.2589445 
0.2780556 0.0008986778 -0.2703176 
0.3416452 0.001472945 -0.192735 
-0.1402274 0.1076307 -0.4489811 
0.1442437 -0.005421035 -0.25317 
0.3327351 0.01699356 -0.2942097 
-0.2668724 -0.3223919 0.31552 
0.2712467 -0.230721 0.1752147 
0.4437537 -0.1262178 -0.02133252 
-0.03995726 -0.2874084 0.2596698 
-0.09937298 -0.03478252 -0.196409 
-0.4337077 -0.01201599 -0.2052534 
-0.2784253 -0.09947832 -0.0720045 
-0.1599069 0.1077025 -0.4433176 
-0.4316233 -0.003661495 -0.2399803 
-0.02217262 0.1172024 -0.4377097 
-0.1335585 -0.3521974 0.3705438 
-0.2120235 -0.3350115 0.3431037 
-0.0925345 0.06806574 -0.3848248 
-0.2235755 -0.1790388 0.07741848 
-0.1456919 -0.006399122 -0.2531008 
-0.1034036 -0.3024974 0.3032082 
-0.05391312 -0.04830172 -0.1803532 
-0.04451497 -0.3010432 0.2859386 
-0.4834906 -0.1256597 -0.009975462 
-0.2915532 -0.1451003 0.008455023 
0.01076516 -0.3530142 0.3865166 
-0.43827 -0.2211714 0.1566842 
-0.4622855 -0.1010743 -0.06258989 
-0.2927456 0.01215733 -0.2731204 
0.1342219 -0.2730826 0.2277405 
0.379201 -0.1177065 0.01314467 
0.3312201 0.053487 -0.3452997 
0.04630044 -0.07367155 -0.1358982 
0.00158452 -0.2296644 0.1510258 
-0.2676085 -0.051007 -0.1496144 
0.1188171 0.01199593 -0.2873961 
0.2612779 -0.2339871 0.1578688 
-0.2935632 0.07103743 -0.3631804 
0.3463067 -0.2208399 0.1837317 
0.2657344 -0.2816966 0.2456715 
-0.3733948 -0.14144 0.0353744 
0.2804224 -0.06056823 -0.1541354 
-0.1728471 -0.1367341 0.2653279 
-0.1856362 -0.1602484 0.0371941 
0.3060782 -0.201761 0.09901763 
-0.216352 -0.1262408 -0.03664522 
0.123268 -0.1993036 0.1378526 
-0.0648816 -0.234222 0.2006058 
-0.06501871 0.04167489 -0.3317098 
0.2918619 -0.2180784 0.1342715 
-0.2597984 0.08696549 -0.4049527 
0.3711547 0.03144136 -0.3117613 
0.336482 -0.03644235 -0.1281423 
-0.1182881 -0.2507285 0.1886667 
0.1312503 0.1064851 -0.4364537 
-0.206799 -0.2085914 0.2009514 
-0.1806552 -0.302953 0.281312 
0.4384626 -0.1834693 0.06549177 
-0.198563 0.07238545 -0.3842979 
-0.4933929 -0.08356793 -0.07285348 
0.3617549 -0.1369926 -0.009911682 
-0.3419463 -0.2810862 0.2084477 
-0.4660093 -0.1592171 0.04357104 
0.36847 -0.0006469572 -0.1887401 
-0.3387031 -0.1137349 -0.04613159 
0.02490874 -0.3375476 0.3720379 
-0.2714847 -0.1322868 -0.01590956 
0.3180979 -0.1712792 0.04348424 
-0.4061199 -0.151722 0.0362701 
-0.3103397 -0.1827271 0.07561789 
-0.08037661 0.09038984 -0.4214278 
0.2669014 -0.1133993 -0.06351235 
0.05095209 0.1212384 -0.4518704 
-0.2541045 -0.2344201 0.2015357 
0.2394224 -0.1201584 -0.04814397 
-0.05828292 -0.02027151 -0.2079394 
-0.3306345 -0.008737247 -0.2307126 
-0.1762877 0.008745249 -0.2350681 
0.4570625 -0.1344607 0.007080405 
-0.09061625 -0.3476161 0.3729226 
0.01347762 -0.1633208 0.1842568 
-0.2282169 -0.1836054 0.1202944 
0.001807079 -0.3542863 0.3853354 
-0.371386 0.03870723 -0.2916749 
-0.4273003 -0.1909969 0.1228766 
0.1832859 0.07641787 -0.3957494 
0.1154314 0.07763614 -0.4043685 
0.1941157 -0.1309665 -0.02670033 
0.3046881 0.06510342 -0.3703668 
0.4452484 -0.01872278 -0.2148112 
-0.1995593 -0.1501365 0.2721441 
-0.247243 0.08945399 -0.4132883 
-0.2535331 -0.2363069 0.1676425 
-0.3825733 0.004582746 -0.2585259 
0.2499038 0.02751476 -0.3012626 
-0.2232909 -0.1973367 0.09898569 
0.02503538 -0.3485405 0.3648416 
0.3165894 0.09868634 0.2600661 
0.3542303 0.04354342 -0.3295897 
0.08781958 0.008985993 -0.2836611 
-0.1093787 -0.01763057 -0.2129829 
0.3611867 -0.1880547 0.1024383 
-0.1810049 -0.06514706 -0.1406238 
-0.2537314 -0.1437042 0.004238718 
-0.2686567 -0.2218896 0.143597 
-0.190704 0.07569633 -0.3896937 
-0.372688 0.05129192 -0.3217461 
0.3518782 0.04073342 -0.3458287 
-0.1878115 -0.1146703 -0.04425219 
0.1089837 0.004459625 -0.2834067 
-0.3540012 -0.110745 -0.01740722 
0.1228329 0.08283533 -0.3721824 
0.4809748 -0.1381088 -0.01441093 
-0.450953 -0.01145035 -0.2257961 
0.02769568 0.03024945 -0.3002936 
0.4461364 -0.0760181 -0.1264865 
-0.2067344 0.06715856 -0.3630917 
0.03886229 -0.212068 0.1198211 
0.1913591 -0.2316639 0.161472 
0.2139915 -0.1682971 0.03979142 
-0.2927096 -0.2385411 0.2119019 
-0.05670625 -0.1122051 0.006520597 
0.01215379 -0.3545536 0.3872128 
-0.4011954 -0.2464629 0.1908217 
-0.3468324 -0.2867936 0.2691433 
0.04659725 -0.03101553 -0.2050272 
0.3750157 -0.1050512 -0.06483838 
0.4327401 -0.211565 0.1180023 
-0.3544763 -0.2027681 0.1130816 
-0.09086072 -0.3546763 0.3782616 
-0.0424402 -0.02377149 -0.2099127 
0.3129655 -0.07104096 0.1623849 
-0.154815 -0.1771505 0.06582952 
0.04544761 0.08477725 -0.4097896 
0.02393779 0.007441133 -0.2285442 
-0.46602 -0.03594283 -0.1759487 
-0.1517862 -0.04568261 -0.175405 
0.009878471 -0.3218046 0.3245133 
-0.0676875 0.006233786 -0.2729445 
-0.2054401 -0.3348034 0.349955 
0.3519059 -0.2706712 0.2413296 
0.4331955 -0.01063742 -0.2304101 
-0.1206408 -0.04152752 -0.1746569 
0.3483004 -0.1724508 0.04442124 
-0.0369605 0.111306 -0.4664815 
0.2302562 -0.01806315 -0.2334538 
-0.2641844 -0.1212938 -0.02704587 
0.3901909 -0.2508782 0.2068144 
-0.1560715 -0.03586218 0.3404044 
-0.4361537 -0.2291441 0.1623054 
0.2179966 -0.03535055 -0.143219 
0.008328427 -0.2483832 0.1849608 
0.2192954 -0.2457862 0.190396 
-0.2807639 0.07228958 -0.379845 
-0.1269336 -0.06514975 -0.1305877 
-0.1606611 -0.003093744 -0.2387861 
0.07040921 -0.2876467 0.2750709 
-0.199152 -0.08368291 -0.09138285 
-0.2316764 -0.07080885 0.02096595 
0.1722231 -0.06528297 -0.1466873 
0.120317 -0.01333811 -0.2078121 
0.3229089 -0.200462 0.09848303 
-0.3757116 -0.1030598 -0.001691022 
0.163507 -0.2632533 0.21237 
0.3137784 0.006993204 -0.2815658 
-0.1106332 -0.08514957 -0.1123336 
0.1759491 0.01125793 -0.2821624 
0.1687492 -0.2630686 0.2144815 
-0.4258554 -0.1899794 0.09897462 
0.3172664 0.05251217 -0.3335086 
0.4774415 -0.07011268 -0.1322892 
-0.1646437 -0.2010491 0.1231205 
-0.4839577 -0.05906096 -0.1327481 
0.3206393 -0.05622571 -0.1450066 
-0.08092414 -0.02722634 -0.2126113 
0.3533072 0.04432911 -0.3397806 
0.05448842 -0.07043977 -0.1421963 
-0.484226 -0.1681819 0.06131162 
-0.1447738 -0.2045486 0.1260489 
-0.3290265 -0.1959369 0.1288834 
-0.02049118 -0.2247976 0.1429345 
0.2992152 0.03576551 -0.3393449 
-0.2833741 0.05827232 -0.353033 
0.2802837 -0.162163 0.04029506 
0.2191741 -0.1068652 -0.02033777 
0.3587163 -0.2810558 0.2456589 
0.269825 -0.2594877 0.2584121 
0.3423146 -0.1726315 0.04665074 
0.4683174 -0.1806534 0.07755851 
0.006212801 0.07544691 -0.3543547 
-0.2389749 -0.2308597 0.1563781 
0.1387517 -0.2913604 0.2995847 
0.02737646 -0.3415696 0.3644333 
-0.2042452 -0.01958341 -0.2192191 
0.289685 -0.06039542 -0.1354653 
-0.2540165 -0.03587929 -0.1895118 
-0.2911119 -0.07079969 -0.1249694 
-0.1476519 -0.1424079 -0.004570505 
-0.3471809 0.04651381 -0.318701 
0.39809 -0.2514638 0.1856813 
0.3684772 -0.04448039 -0.08407489 
0.1764445 -0.1316015 -0.0434463 
-0.4630023 -0.09324141 -0.07631566 
-0.2637108 -0.2632965 0.2139705 
-0.3942707 0.03100162 -0.2920179 
0.2562797 0.0193022 -0.2883192 
0.01887666 0.1110293 -0.4038054 
0.0218864 0.02533283 -0.2959453 
-0.2549149 -0.1179395 -0.02255477 
-0.2499172 -0.1184299 -0.02322047 
0.2540422 0.07668187 -0.4102287 
-0.2128481 -0.2276515 0.1512394 
-0.4064322 -0.04570656 -0.1648041 
0.04862912 0.09762667 -0.4351956 
0.2340822 -0.3212803 0.3251221 
0.03615355 -0.3525941 0.3757014 
0.471572 -0.1102836 -0.0647399 
-0.009603698 -0.3413111 0.3669441 
-0.2863098 -0.1983671 0.09331503 
0.1295046 -0.2724826 0.2261115 
0.3155562 -0.2864763 0.2640823 
-0.429645 -0.1627222 0.06001626 
0.4693384 -0.08729196 -0.09995901 
